# .PCD v0.7 - Point Cloud Data file format
VERSION 0.7
FIELDS x y z rgb
SIZE 4 4 4 4
TYPE F F F F
COUNT 1 1 1 1
WIDTH 940
HEIGHT 1
VIEWPOINT 0 0 0 1 0 0 0
POINTS 940
DATA ascii
-0.07674858 -0.028348573 0.72600001 5.8882351e-39
-0.075365722 -0.028348573 0.72600001 6.2570247e-39
-0.073880956 -0.028309526 0.72500002 6.1669954e-39
-0.072500005 -0.028309526 0.72500002 5.9840349e-39
-0.071119055 -0.028309526 0.72500002 6.0744285e-39
-0.069738097 -0.028309526 0.72500002 6.1648234e-39
-0.068357147 -0.028309526 0.72500002 6.2541422e-39
-0.066976197 -0.028309526 0.72500002 6.2548625e-39
-0.065595239 -0.028309526 0.72500002 6.7129665e-39
-0.064214289 -0.028309526 0.72500002 7.0785317e-39
-0.062920004 -0.028348573 0.72600001 6.71264e-39
-0.061537147 -0.028348573 0.72600001 6.3481679e-39
-0.060154289 -0.028348573 0.72600001 6.348884e-39
-0.058771431 -0.028348573 0.72600001 6.3488938e-39
-0.056237146 -0.028465716 0.72900003 7.086819e-39
-0.05499905 -0.028543811 0.73100001 6.722707e-39
-0.05360667 -0.028543811 0.73100001 6.4504165e-39
-0.052214291 -0.028543811 0.73100001 6.8184633e-39
-0.050891433 -0.02858286 0.73200005 7.1858081e-39
-0.049497146 -0.02858286 0.73200005 7.4605999e-39
-0.048234288 -0.028660955 0.73400003 7.7350176e-39
-0.046836194 -0.028660955 0.73400003 7.5506165e-39
-0.045561906 -0.02873905 0.73600006 7.365896e-39
-0.042932384 -0.028856192 0.73900002 7.4570098e-39
-0.041749526 -0.029012382 0.74300003 7.3629925e-39
-0.040334288 -0.029012382 0.74300003 7.271178e-39
-0.039128575 -0.029168574 0.74700004 7.7328876e-39
-0.037857145 -0.029285716 0.75000006 8.286053e-39
-0.036428574 -0.029285716 0.75000006 8.471875e-39
-0.035093337 -0.029363811 0.75200003 8.7498968e-39
-0.033795241 -0.029480955 0.75500005 8.6569893e-39
-0.10472 -0.027782859 0.74800003 6.8087453e-39
-0.10315715 -0.027745716 0.74700004 7.4519581e-39
-0.1017343 -0.027745716 0.74700004 6.9938624e-39
-0.10004286 -0.02767143 0.74500006 6.4442774e-39
-0.098226674 -0.027560001 0.74200004 6.4449878e-39
-0.096552387 -0.027485715 0.74000001 6.3513587e-39
-0.095014289 -0.027448574 0.73900002 6.4424781e-39
-0.093606673 -0.027448574 0.73900002 6.4399656e-39
-0.09194953 -0.027374288 0.73700005 6.161948e-39
-0.090422861 -0.027337145 0.73600006 5.7931724e-39
-0.088779055 -0.027262859 0.73400003 6.0672468e-39
-0.087023817 -0.02715143 0.73100001 6.3449043e-39
-0.085631438 -0.02715143 0.73100001 6.2523499e-39
-0.084239051 -0.02715143 0.73100001 6.161948e-39
-0.082620002 -0.027077144 0.72900003 6.1626654e-39
-0.081231438 -0.027077144 0.72900003 6.1615892e-39
-0.079842865 -0.027077144 0.72900003 6.0701125e-39
-0.078131437 -0.026965717 0.72600001 5.8864485e-39
-0.076960005 -0.027040001 0.72800004 6.1616032e-39
-0.075365722 -0.026965717 0.72600001 6.3496056e-39
-0.073982865 -0.026965717 0.72600001 6.1727772e-39
-0.072600007 -0.026965717 0.72600001 5.9847706e-39
-0.071217149 -0.026965717 0.72600001 5.9815112e-39
-0.069834292 -0.026965717 0.72600001 5.9786427e-39
-0.068640001 -0.027040001 0.72800004 5.9754141e-39
-0.067068577 -0.026965717 0.72600001 5.8846646e-39
-0.065866672 -0.027040001 0.72800004 6.3431344e-39
-0.064480007 -0.027040001 0.72800004 6.7122827e-39
-0.063180007 -0.027077144 0.72900003 6.4375063e-39
-0.061791431 -0.027077144 0.72900003 6.1659403e-39
-0.060402863 -0.027077144 0.72900003 6.3531944e-39
-0.059014291 -0.027077144 0.72900003 6.4461089e-39
-0.057625718 -0.027077144 0.72900003 7.0021483e-39
-0.056391433 -0.02715143 0.73100001 7.4602692e-39
-0.055074289 -0.027188573 0.73200005 6.910352e-39
-0.053680003 -0.027188573 0.73200005 6.3596796e-39
-0.052285716 -0.027188573 0.73200005 6.7287956e-39
-0.051030479 -0.027262859 0.73400003 7.0936391e-39
-0.049767621 -0.027337145 0.73600006 7.6450234e-39
-0.048365716 -0.027337145 0.73600006 8.1942147e-39
-0.047027621 -0.027374288 0.73700005 7.8261286e-39
-0.045623813 -0.027374288 0.73700005 7.3658903e-39
-0.044400003 -0.027485715 0.74000001 7.4566651e-39
-0.043106668 -0.027560001 0.74200004 7.4527008e-39
-0.041861907 -0.02767143 0.74500006 7.3576199e-39
-0.040551431 -0.027745716 0.74700004 7.1750377e-39
-0.039285716 -0.027857145 0.75000006 7.7307254e-39
-0.037857145 -0.027857145 0.75000006 8.1934958e-39
-0.036525715 -0.027931431 0.75200003 8.4708016e-39
-0.035140004 -0.027968572 0.75300002 8.6548397e-39
-0.033795241 -0.028042858 0.75500005 8.7470437e-39
-0.032400001 -0.028080001 0.75600004 8.838861e-39
-0.105 -0.026428573 0.75000006 6.6261477e-39
-0.10329524 -0.026358098 0.74800003 7.0860426e-39
-0.1017343 -0.026322858 0.74700004 6.7187006e-39
-0.10004286 -0.026252383 0.74500006 6.3527936e-39
-0.098359056 -0.026181906 0.74300003 6.3520761e-39
-0.096813336 -0.026146669 0.74200004 6.3513601e-39
-0.095142864 -0.026076192 0.74000001 6.4435543e-39
-0.093606673 -0.026040955 0.73900002 6.6272253e-39
-0.092199057 -0.026040955 0.73900002 6.3477713e-39
-0.090545721 -0.025970478 0.73700005 6.0704712e-39
-0.08902096 -0.02593524 0.73600006 6.4385306e-39
-0.087142862 -0.025794288 0.73200005 6.8987843e-39
-0.085748576 -0.025794288 0.73200005 6.6239953e-39
-0.084239051 -0.025759049 0.73100001 6.3488475e-39
-0.082846671 -0.025759049 0.73100001 6.2548596e-39
-0.081454292 -0.025759049 0.73100001 6.2509136e-39
-0.079842865 -0.025688574 0.72900003 6.0683188e-39
-0.078454293 -0.025688574 0.72900003 5.8835856e-39
-0.077065721 -0.025688574 0.72900003 5.9775875e-39
-0.075677149 -0.025688574 0.72900003 5.9797806e-39
-0.074288577 -0.025688574 0.72900003 5.8919304e-39
-0.072800003 -0.025653334 0.72800004 5.8007591e-39
-0.071413338 -0.025653334 0.72800004 5.8896701e-39
-0.070026673 -0.025653334 0.72800004 5.976849e-39
-0.068734288 -0.025688574 0.72900003 6.0686915e-39
-0.067345716 -0.025688574 0.72900003 6.250227e-39
-0.065957144 -0.025688574 0.72900003 6.8062776e-39
-0.064568579 -0.025688574 0.72900003 7.3569417e-39
-0.063180007 -0.025688574 0.72900003 6.3492707e-39
-0.061960958 -0.025759049 0.73100001 5.3405068e-39
-0.060568575 -0.025759049 0.73100001 5.247944e-39
-0.059176195 -0.025759049 0.73100001 5.2536809e-39
-0.057783812 -0.025759049 0.73100001 4.8845425e-39
-0.056468576 -0.025794288 0.73200005 4.5247717e-39
-0.055074289 -0.025794288 0.73200005 4.7938589e-39
-0.053826671 -0.025864763 0.73400003 5.1654804e-39
-0.052428573 -0.025864763 0.73400003 5.8032814e-39
-0.051030479 -0.025864763 0.73400003 6.447946e-39
-0.049767621 -0.02593524 0.73600006 6.9075032e-39
-0.048365716 -0.02593524 0.73600006 7.4584755e-39
-0.047027621 -0.025970478 0.73700005 7.2744038e-39
-0.045747623 -0.026040955 0.73900002 7.181855e-39
-0.044520002 -0.026146669 0.74200004 7.0864364e-39
-0.043164764 -0.026181906 0.74300003 6.988857e-39
-0.041861907 -0.026252383 0.74500006 6.9863402e-39
-0.040605716 -0.026358098 0.74800003 6.9831145e-39
-0.039285716 -0.026428573 0.75000006 7.5459684e-39
-0.037958097 -0.02649905 0.75200003 8.1945692e-39
-0.036574289 -0.026534287 0.75300002 8.4697282e-39
-0.035280004 -0.026640002 0.75600004 8.7438137e-39
-0.033840001 -0.026640002 0.75600004 8.9303672e-39
-0.032485716 -0.026710479 0.75800002 9.1143843e-39
-0.10528 -0.025066668 0.75200003 6.4421278e-39
-0.10357144 -0.025000002 0.75000006 6.718e-39
-0.10187048 -0.024933334 0.74800003 6.5339787e-39
-0.10004286 -0.024833335 0.74500006 6.2598973e-39
-0.09862382 -0.024833335 0.74500006 6.3513629e-39
-0.096943818 -0.024766669 0.74300003 6.3524601e-39
-0.095400006 -0.024733335 0.74200004 6.5361535e-39
-0.093733341 -0.024666669 0.74000001 6.7180084e-39
-0.092199057 -0.024633335 0.73900002 6.5318053e-39
-0.090545721 -0.024566669 0.73700005 6.3484986e-39
-0.08902096 -0.024533335 0.73600006 6.9009535e-39
-0.087142862 -0.024400001 0.73200005 7.361203e-39
-0.085748576 -0.024400001 0.73200005 6.9041751e-39
-0.084354289 -0.024400001 0.73200005 6.443204e-39
-0.082846671 -0.024366667 0.73100001 6.3488587e-39
-0.081454292 -0.024366667 0.73100001 6.254152e-39
-0.080061913 -0.024366667 0.73100001 6.0679671e-39
-0.078669526 -0.024366667 0.73100001 5.8853821e-39
-0.077277146 -0.024366667 0.73100001 5.7931977e-39
-0.075677149 -0.024300002 0.72900003 5.6124274e-39
-0.074492387 -0.024366667 0.73100001 5.6135344e-39
-0.072900005 -0.024300002 0.72900003 5.615656e-39
-0.071511433 -0.024300002 0.72900003 5.7996548e-39
-0.07012286 -0.024300002 0.72900003 5.8897079e-39
-0.068734288 -0.024300002 0.72900003 6.2556276e-39
-0.067345716 -0.024300002 0.72900003 6.533662e-39
-0.066138096 -0.024366667 0.73100001 7.2741025e-39
-0.064568579 -0.024300002 0.72900003 7.9144286e-39
-0.063353337 -0.024366667 0.73100001 6.2613785e-39
-0.062045719 -0.024400001 0.73200005 4.5085923e-39
-0.060651433 -0.024400001 0.73200005 4.2280454e-39
-0.059257146 -0.024400001 0.73200005 3.9561332e-39
-0.057862859 -0.024400001 0.73200005 2.7568978e-39
-0.056468576 -0.024400001 0.73200005 1.4769504e-39
-0.055224765 -0.024466669 0.73400003 2.6658008e-39
-0.053826671 -0.024466669 0.73400003 3.8643187e-39
-0.052571431 -0.024533335 0.73600006 4.778722e-39
-0.051169526 -0.024533335 0.73600006 5.707853e-39
-0.049835242 -0.024566669 0.73700005 6.2617512e-39
-0.04843143 -0.024566669 0.73700005 6.7219811e-39
-0.047155242 -0.024633335 0.73900002 6.8141529e-39
-0.045809526 -0.024666669 0.74000001 6.9041905e-39
-0.044520002 -0.024733335 0.74200004 6.7183643e-39
-0.043164764 -0.024766669 0.74300003 6.5278718e-39
-0.041974287 -0.024900002 0.74700004 6.7072338e-39
-0.04071429 -0.025000002 0.75000006 6.8033755e-39
-0.039390478 -0.025066668 0.75200003 7.4584237e-39
-0.038008574 -0.025100002 0.75300002 8.1023624e-39
-0.036720004 -0.025200002 0.75600004 8.4697184e-39
-0.035280004 -0.025200002 0.75600004 8.8385177e-39
-0.033929527 -0.025266668 0.75800002 9.1158417e-39
-0.032485716 -0.025266668 0.75800002 9.2994804e-39
-0.105 -0.02357143 0.75000006 6.3492245e-39
-0.10357144 -0.02357143 0.75000006 6.9013305e-39
-0.10187048 -0.023508573 0.74800003 6.6261981e-39
-0.10031144 -0.023477145 0.74700004 6.2599113e-39
-0.09862382 -0.023414288 0.74500006 6.260249e-39
-0.096943818 -0.023351431 0.74300003 6.1709667e-39
-0.09552858 -0.023351431 0.74300003 6.3521686e-39
-0.093986675 -0.023320001 0.74200004 6.4421684e-39
-0.092199057 -0.023225715 0.73900002 6.2580966e-39
-0.090791434 -0.023225715 0.73900002 5.9829615e-39
-0.089383818 -0.023225715 0.73900002 6.4428677e-39
-0.087380961 -0.023068573 0.73400003 6.9034731e-39
-0.085982859 -0.023068573 0.73400003 6.537559e-39
-0.084584765 -0.023068573 0.73400003 6.171296e-39
-0.082960002 -0.023005717 0.73200005 6.2602631e-39
-0.081565723 -0.023005717 0.73200005 6.44106e-39
-0.080171436 -0.023005717 0.73200005 6.2563086e-39
-0.078669526 -0.022974288 0.73100001 6.0722845e-39
-0.077277146 -0.022974288 0.73100001 5.7975011e-39
-0.075884767 -0.022974288 0.73100001 5.5223743e-39
-0.074492387 -0.022974288 0.73100001 5.3387243e-39
-0.073100008 -0.022974288 0.73100001 5.0650045e-39
-0.071511433 -0.022911429 0.72900003 5.250102e-39
-0.070315242 -0.022974288 0.73100001 5.3430305e-39
-0.068922862 -0.022974288 0.73100001 5.7093131e-39
-0.067530483 -0.022974288 0.73100001 6.0795432e-39
-0.066138096 -0.022974288 0.73100001 6.3572203e-39
-0.064745717 -0.022974288 0.73100001 6.7241727e-39
-0.063440003 -0.023005717 0.73200005 4.6018796e-39
-0.062045719 -0.023005717 0.73200005 2.5721422e-39
-0.060651433 -0.023005717 0.73200005 3.4007846e-39
-0.059257146 -0.023005717 0.73200005 4.3198753e-39
-0.058020957 -0.023068573 0.73400003 3.5848494e-39
-0.056622859 -0.023068573 0.73400003 2.9391142e-39
-0.055224765 -0.023068573 0.73400003 3.9550262e-39
-0.053973336 -0.02313143 0.73600006 5.0516838e-39
-0.052571431 -0.02313143 0.73600006 5.4290829e-39
-0.051239051 -0.023162859 0.73700005 5.802173e-39
-0.049835242 -0.023162859 0.73700005 6.0784039e-39
-0.048562862 -0.023225715 0.73900002 6.3531888e-39
-0.047155242 -0.023225715 0.73900002 6.1691548e-39
-0.045933336 -0.023320001 0.74200004 5.9843964e-39
-0.044580001 -0.023351431 0.74300003 5.8860911e-39
-0.043280955 -0.023414288 0.74500006 5.8810647e-39
-0.04203048 -0.023508573 0.74800003 6.2480437e-39
-0.04082286 -0.023634287 0.75200003 6.7075813e-39
-0.03944286 -0.023665715 0.75300002 7.3629855e-39
-0.038109526 -0.023728574 0.75500005 8.1027085e-39
-0.036720004 -0.023760002 0.75600004 8.379308e-39
-0.035373334 -0.023822859 0.75800002 8.7488346e-39
-0.033929527 -0.023822859 0.75800002 8.9332553e-39
-0.032614287 -0.023917144 0.76100004 9.2090715e-39
-0.10528 -0.022201907 0.75200003 6.3474252e-39
-0.10357144 -0.022142859 0.75000006 7.0831924e-39
-0.10214286 -0.022142859 0.75000006 6.7180112e-39
-0.10031144 -0.022054287 0.74700004 6.2588225e-39
-0.098888576 -0.022054287 0.74700004 6.1669772e-39
-0.097204767 -0.021995239 0.74500006 5.984409e-39
-0.09552858 -0.021936191 0.74300003 6.0755537e-39
-0.093986675 -0.021906668 0.74200004 6.1673612e-39
-0.092573337 -0.021906668 0.74200004 5.8914679e-39
-0.090914294 -0.021847621 0.74000001 5.616344e-39
-0.089383818 -0.021818096 0.73900002 5.9844287e-39
-0.087738104 -0.02175905 0.73700005 6.3528356e-39
-0.086334288 -0.02175905 0.73700005 6.1705898e-39
-0.084815241 -0.021729525 0.73600006 5.8950917e-39
-0.083186671 -0.021670477 0.73400003 6.2631595e-39
-0.081565723 -0.02161143 0.73200005 6.5361395e-39
-0.080171436 -0.02161143 0.73200005 6.4435697e-39
-0.078777149 -0.02161143 0.73200005 6.2598973e-39
-0.077382863 -0.02161143 0.73200005 5.8939889e-39
-0.075988576 -0.02161143 0.73200005 5.4312395e-39
-0.074594289 -0.02161143 0.73200005 4.9706425e-39
-0.073100008 -0.021581907 0.73100001 4.512544e-39
-0.071707621 -0.021581907 0.73100001 4.7005212e-39
-0.070315242 -0.021581907 0.73100001 4.7898624e-39
-0.068922862 -0.021581907 0.73100001 5.1590148e-39
-0.067530483 -0.021581907 0.73100001 5.5278043e-39
-0.066228576 -0.02161143 0.73200005 5.5339154e-39
-0.064834289 -0.02161143 0.73200005 5.4316416e-39
-0.063440003 -0.02161143 0.73200005 3.0331231e-39
-0.062215243 -0.021670477 0.73400003 6.4538062e-40
-0.060817149 -0.021670477 0.73400003 2.6664608e-39
-0.059419051 -0.021670477 0.73400003 4.5975397e-39
-0.058020957 -0.021670477 0.73400003 4.5068043e-39
-0.056622859 -0.021670477 0.73400003 4.3288772e-39
-0.055224765 -0.021670477 0.73400003 5.3466066e-39
-0.053973336 -0.021729525 0.73600006 6.2621044e-39
-0.052571431 -0.021729525 0.73600006 6.0831095e-39
-0.051239051 -0.02175905 0.73700005 5.8972721e-39
-0.049970478 -0.021818096 0.73900002 5.8968994e-39
-0.048562862 -0.021818096 0.73900002 5.8950973e-39
-0.047219049 -0.021847621 0.74000001 5.4334017e-39
-0.045933336 -0.021906668 0.74200004 4.9684817e-39
-0.044580001 -0.021936191 0.74300003 5.0517062e-39
-0.043280955 -0.021995239 0.74500006 5.1460416e-39
-0.04203048 -0.022083811 0.74800003 5.8799983e-39
-0.040877145 -0.02223143 0.75300002 6.5285823e-39
-0.039547622 -0.022290478 0.75500005 7.3669357e-39
-0.038160004 -0.022320002 0.75600004 8.1023484e-39
-0.036817145 -0.022379048 0.75800002 8.3789437e-39
-0.035373334 -0.022379048 0.75800002 8.565151e-39
-0.033929527 -0.022379048 0.75800002 8.8421176e-39
-0.032614287 -0.022467621 0.76100004 9.0261165e-39
-0.10570001 -0.020852383 0.75500005 5.7935354e-39
-0.10384762 -0.020769525 0.75200003 6.2537891e-39
-0.10241524 -0.020769525 0.75200003 6.0737054e-39
-0.10071429 -0.020714287 0.75000006 5.9815112e-39
-0.098888576 -0.020631431 0.74700004 6.0744215e-39
-0.097465724 -0.020631431 0.74700004 6.0755089e-39
-0.095785722 -0.020576192 0.74500006 6.1684318e-39
-0.094113342 -0.020520953 0.74300003 6.3520901e-39
-0.092698105 -0.020520953 0.74300003 6.0762109e-39
-0.091160007 -0.020493334 0.74200004 5.8925764e-39
-0.089504771 -0.020438097 0.74000001 6.0770012e-39
-0.087976195 -0.020410478 0.73900002 6.3528539e-39
-0.086334288 -0.02035524 0.73700005 6.3531986e-39
-0.08493048 -0.02035524 0.73700005 6.353214e-39
-0.08341334 -0.02032762 0.73600006 6.3539455e-39
-0.081788577 -0.020272382 0.73400003 6.4453942e-39
-0.080390483 -0.020272382 0.73400003 5.9861887e-39
-0.078992389 -0.020272382 0.73400003 5.6195558e-39
-0.077594288 -0.020272382 0.73400003 4.9713179e-39
-0.076196194 -0.020272382 0.73400003 4.327403e-39
-0.074594289 -0.020217145 0.73200005 3.9575597e-39
-0.073200002 -0.020217145 0.73200005 3.6809897e-39
-0.071805716 -0.020217145 0.73200005 3.3150938e-39
-0.070411436 -0.020217145 0.73200005 2.9470512e-39
-0.06901715 -0.020217145 0.73200005 3.958692e-39
-0.067622863 -0.020217145 0.73200005 4.8788476e-39
-0.066228576 -0.020217145 0.73200005 5.1543611e-39
-0.064834289 -0.020217145 0.73200005 5.4244502e-39
-0.06361334 -0.020272382 0.73400003 4.2316271e-39
-0.062215243 -0.020272382 0.73400003 3.1256481e-39
-0.060817149 -0.020272382 0.73400003 4.3259583e-39
-0.059419051 -0.020272382 0.73400003 5.519489e-39
-0.058020957 -0.020272382 0.73400003 5.2475979e-39
-0.056777146 -0.02032762 0.73600006 5.0736407e-39
-0.055375241 -0.02032762 0.73600006 6.0842165e-39
-0.053973336 -0.02032762 0.73600006 7.1887676e-39
-0.05264286 -0.02035524 0.73700005 6.5434206e-39
-0.051378097 -0.020410478 0.73900002 5.8991022e-39
-0.049970478 -0.020410478 0.73900002 5.8036429e-39
-0.048628576 -0.020438097 0.74000001 5.7132312e-39
-0.04734667 -0.020493334 0.74200004 5.433766e-39
-0.045995243 -0.020520953 0.74300003 5.1492996e-39
-0.044700004 -0.020576192 0.74500006 5.2389897e-39
-0.043280955 -0.020576192 0.74500006 5.4240802e-39
-0.042142861 -0.020714287 0.75000006 5.9750764e-39
-0.040877145 -0.020797145 0.75300002 6.5271572e-39
-0.039547622 -0.020852383 0.75500005 7.2697234e-39
-0.038160004 -0.020880001 0.75600004 8.0094367e-39
-0.036817145 -0.020935239 0.75800002 8.1956244e-39
-0.035373334 -0.020935239 0.75800002 8.4736616e-39
-0.033929527 -0.020935239 0.75800002 8.6587858e-39
-0.032614287 -0.021018097 0.76100004 8.8438791e-39
-0.10440001 -0.019440001 0.75600004 5.3347166e-39
-0.10282382 -0.019414287 0.75500005 5.5244861e-39
-0.10098287 -0.019337144 0.75200003 5.7060033e-39
-0.099020958 -0.019234287 0.74800003 5.9818671e-39
-0.097465724 -0.019208573 0.74700004 6.1680548e-39
-0.095785722 -0.019157143 0.74500006 6.3546013e-39
-0.094113342 -0.019105716 0.74300003 6.4446389e-39
-0.092698105 -0.019105716 0.74300003 6.3527992e-39
-0.091282859 -0.019105716 0.74300003 6.168436e-39
-0.089746669 -0.019080002 0.74200004 6.2610156e-39
-0.087976195 -0.019002859 0.73900002 6.2606484e-39
-0.086568579 -0.019002859 0.73900002 6.5361479e-39
-0.08493048 -0.018951429 0.73700005 6.7208993e-39
-0.083526671 -0.018951429 0.73700005 6.5372339e-39
-0.082011431 -0.018925715 0.73600006 6.2624239e-39
-0.08060953 -0.018925715 0.73600006 5.6195558e-39
-0.078992389 -0.018874288 0.73400003 4.8784104e-39
-0.077594288 -0.018874288 0.73400003 4.0447135e-39
-0.076196194 -0.018874288 0.73400003 3.219273e-39
-0.0747981 -0.018874288 0.73400003 3.03453e-39
-0.073400006 -0.018874288 0.73400003 2.7593977e-39
-0.071805716 -0.018822858 0.73200005 1.9311e-39
-0.070411436 -0.018822858 0.73200005 1.1063938e-39
-0.069205716 -0.018874288 0.73400003 2.6665421e-39
-0.067622863 -0.018822858 0.73200005 4.2320531e-39
-0.066409528 -0.018874288 0.73400003 4.7798417e-39
-0.065011434 -0.018874288 0.73400003 5.3383698e-39
-0.06361334 -0.018874288 0.73400003 5.4348506e-39
-0.062384766 -0.018925715 0.73600006 5.5259644e-39
-0.060982861 -0.018925715 0.73600006 5.9923124e-39
-0.059580956 -0.018925715 0.73600006 6.3542804e-39
-0.058179051 -0.018925715 0.73600006 6.0744775e-39
-0.056777146 -0.018925715 0.73600006 5.8015018e-39
-0.05545048 -0.018951429 0.73700005 6.9107234e-39
-0.054046672 -0.018951429 0.73700005 8.0127451e-39
-0.052785717 -0.019002859 0.73900002 6.9099989e-39
-0.051447622 -0.019028572 0.74000001 5.8032996e-39
-0.050038099 -0.019028572 0.74000001 5.7046398e-39
-0.048760004 -0.019080002 0.74200004 5.5245323e-39
-0.047410481 -0.019105716 0.74300003 5.4394889e-39
-0.045995243 -0.019105716 0.74300003 5.3365341e-39
-0.044700004 -0.019157143 0.74500006 5.5144668e-39
-0.043397147 -0.019208573 0.74700004 5.6073813e-39
-0.042142861 -0.019285716 0.75000006 6.0694328e-39
-0.040985718 -0.019414287 0.75500005 6.4371307e-39
-0.039600004 -0.019440001 0.75600004 7.1754006e-39
-0.038260955 -0.01949143 0.75800002 7.8247063e-39
-0.036817145 -0.01949143 0.75800002 8.1041588e-39
-0.035466667 -0.019542858 0.76000005 8.3814786e-39
-0.034063812 -0.019568572 0.76100004 8.4751288e-39
-0.032700002 -0.019620001 0.76300001 8.5673076e-39
-0.10440001 -0.018000001 0.75600004 4.6889983e-39
-0.10282382 -0.017976191 0.75500005 4.8748217e-39
-0.10098287 -0.017904762 0.75200003 5.1517603e-39
-0.099020958 -0.017809525 0.74800003 5.5219693e-39
-0.097596198 -0.017809525 0.74800003 5.9850943e-39
-0.096042864 -0.017785715 0.74700004 6.2606008e-39
-0.09436667 -0.017738096 0.74500006 6.6268708e-39
-0.092947625 -0.017738096 0.74500006 6.350651e-39
-0.091282859 -0.017690478 0.74300003 6.0751599e-39
-0.089867622 -0.017690478 0.74300003 6.1677283e-39
-0.08809524 -0.017619049 0.74000001 6.3513979e-39
-0.086568579 -0.017595239 0.73900002 6.6279778e-39
-0.085160956 -0.017595239 0.73900002 6.9971092e-39
-0.083526671 -0.01754762 0.73700005 6.1716604e-39
-0.082122862 -0.01754762 0.73700005 5.4376812e-39
-0.080719054 -0.01754762 0.73700005 4.6028983e-39
-0.079207622 -0.01752381 0.73600006 3.7702818e-39
-0.07780572 -0.01752381 0.73600006 3.0338056e-39
-0.076403812 -0.01752381 0.73600006 2.205491e-39
-0.0747981 -0.017476192 0.73400003 2.9419659e-39
-0.073400006 -0.017476192 0.73400003 3.7685036e-39
-0.072001912 -0.017476192 0.73400003 3.4044084e-39
-0.070603818 -0.017476192 0.73400003 3.1253398e-39
-0.069205716 -0.017476192 0.73400003 4.233488e-39
-0.067807622 -0.017476192 0.73400003 5.4291431e-39
-0.066409528 -0.017476192 0.73400003 5.8922667e-39
-0.065188579 -0.01752381 0.73600006 6.3564678e-39
-0.063786671 -0.01752381 0.73600006 6.4483033e-39
-0.062384766 -0.01752381 0.73600006 6.6330505e-39
-0.060982861 -0.01752381 0.73600006 6.7266782e-39
-0.059580956 -0.01752381 0.73600006 6.911773e-39
-0.058258098 -0.01754762 0.73700005 6.2610198e-39
-0.056854289 -0.01754762 0.73700005 5.6063457e-39
-0.055600956 -0.017595239 0.73900002 5.9837448e-39
-0.054193337 -0.017595239 0.73900002 6.4500773e-39
-0.052857146 -0.017619049 0.74000001 5.3419319e-39
-0.051447622 -0.017619049 0.74000001 4.2395654e-39
-0.050173335 -0.017666668 0.74200004 4.6004685e-39
-0.048760004 -0.017666668 0.74200004 4.9652629e-39
-0.047410481 -0.017690478 0.74300003 5.1564308e-39
-0.044820003 -0.017785715 0.74700004 5.4229592e-39
-0.043455239 -0.017809525 0.74800003 5.4208306e-39
-0.042255241 -0.017904762 0.75200003 5.9747359e-39
-0.041040003 -0.018000001 0.75600004 6.5279069e-39
-0.039704766 -0.01804762 0.75800002 7.1764993e-39
-0.038260955 -0.01804762 0.75800002 7.7339638e-39
-0.036914289 -0.01809524 0.76000005 8.0126919e-39
-0.035513334 -0.018119048 0.76100004 8.3811325e-39
-0.034063812 -0.018119048 0.76100004 8.4737065e-39
-0.032785717 -0.018214287 0.76500005 8.6584354e-39
-0.10440001 -0.016560001 0.75600004 3.9525179e-39
-0.10296001 -0.016560001 0.75600004 4.2262307e-39
-0.10111715 -0.016494287 0.75300002 4.5056818e-39
-0.099550486 -0.016472382 0.75200003 5.1521162e-39
-0.097857147 -0.016428573 0.75000006 5.7053012e-39
-0.096171431 -0.016384764 0.74800003 6.2599211e-39
-0.094620004 -0.016362859 0.74700004 6.8094866e-39
-0.092947625 -0.01631905 0.74500006 6.4389048e-39
-0.091282859 -0.016275238 0.74300003 5.982251e-39
-0.089867622 -0.016275238 0.74300003 6.1662934e-39
-0.08809524 -0.016209524 0.74000001 6.3513937e-39
-0.086685717 -0.016209524 0.74000001 6.8109243e-39
-0.085160956 -0.016187619 0.73900002 7.1811277e-39
-0.08375334 -0.016187619 0.73900002 5.8975762e-39
-0.082122862 -0.01614381 0.73700005 4.6029039e-39
-0.080719054 -0.01614381 0.73700005 3.6752163e-39
-0.079315245 -0.01614381 0.73700005 2.6661077e-39
-0.077911437 -0.01614381 0.73700005 1.9303531e-39
-0.076403812 -0.016121905 0.73600006 1.1960363e-39
-0.07500191 -0.016121905 0.73600006 2.942354e-39
-0.073600002 -0.016121905 0.73600006 4.6944143e-39
-0.072296195 -0.01614381 0.73700005 4.884911e-39
-0.070892386 -0.01614381 0.73700005 5.0653702e-39
-0.069488578 -0.01614381 0.73700005 5.8047346e-39
-0.068084769 -0.01614381 0.73700005 6.539064e-39
-0.06668096 -0.01614381 0.73700005 6.9114324e-39
-0.065277144 -0.01614381 0.73700005 7.2773493e-39
-0.063873336 -0.01614381 0.73700005 7.4610287e-39
-0.062469527 -0.01614381 0.73700005 7.6450472e-39
-0.061065719 -0.01614381 0.73700005 7.5535606e-39
-0.05966191 -0.01614381 0.73700005 7.3709392e-39
-0.058258098 -0.01614381 0.73700005 6.3596473e-39
-0.057008576 -0.016187619 0.73900002 5.3397865e-39
-0.055600956 -0.016187619 0.73900002 5.1518276e-39
-0.054266669 -0.016209524 0.74000001 4.8766602e-39
-0.052857146 -0.016209524 0.74000001 3.76744e-39
-0.051586669 -0.016253334 0.74200004 2.5775414e-39
-0.050173335 -0.016253334 0.74200004 3.4926846e-39
-0.048825718 -0.016275238 0.74300003 4.3249171e-39
-0.047410481 -0.016275238 0.74300003 4.8870256e-39
-0.046119049 -0.01631905 0.74500006 5.3368732e-39
-0.044820003 -0.016362859 0.74700004 5.330772e-39
-0.043455239 -0.016384764 0.74800003 5.2382302e-39
-0.042142861 -0.016428573 0.75000006 5.9729254e-39
-0.041040003 -0.016560001 0.75600004 6.6204444e-39
-0.039704766 -0.016603811 0.75800002 7.1768468e-39
-0.038361907 -0.01664762 0.76000005 7.641757e-39
-0.036962859 -0.016669525 0.76100004 8.0144715e-39
-0.035606667 -0.016713334 0.76300001 8.2896403e-39
-0.034242861 -0.016757144 0.76500005 8.4722547e-39
-0.032871429 -0.016800953 0.76700002 8.6573452e-39
-0.03145143 -0.016822858 0.76800001 8.658406e-39
-0.10467619 -0.015160001 0.75800002 4.3194983e-39
-0.10323239 -0.015160001 0.75800002 4.5024518e-39
-0.10138572 -0.015100001 0.75500005 4.7779583e-39
-0.09968286 -0.015060001 0.75300002 5.0556172e-39
-0.098118104 -0.015040001 0.75200003 5.3315203e-39
-0.096428581 -0.015000001 0.75000006 5.7946816e-39
-0.094746672 -0.014960001 0.74800003 6.2595722e-39
-0.093197152 -0.014940001 0.74700004 6.1662738e-39
-0.09152858 -0.014900001 0.74500006 6.0755243e-39
-0.089867622 -0.014860001 0.74300003 6.1673696e-39
-0.088333338 -0.014840001 0.74200004 6.3517496e-39
-0.086685717 -0.014800001 0.74000001 6.4464452e-39
-0.085276194 -0.014800001 0.74000001 6.5386282e-39
-0.08375334 -0.014780001 0.73900002 5.3386571e-39
-0.082345717 -0.014780001 0.73900002 4.1358273e-39
-0.080938101 -0.014780001 0.73900002 3.7674091e-39
-0.079315245 -0.014740001 0.73700005 3.4004357e-39
-0.077911437 -0.014740001 0.73700005 3.3114799e-39
-0.076507621 -0.014740001 0.73700005 3.2164354e-39
-0.075103812 -0.014740001 0.73700005 4.3281667e-39
-0.073700003 -0.014740001 0.73700005 5.5284882e-39
-0.072296195 -0.014740001 0.73700005 5.3441025e-39
-0.071084768 -0.014780001 0.73900002 5.2519167e-39
-0.069677144 -0.014780001 0.73900002 5.6203433e-39
-0.068084769 -0.014740001 0.73700005 5.9902062e-39
-0.066861913 -0.014780001 0.73900002 6.4511858e-39
-0.065454289 -0.014780001 0.73900002 6.9114577e-39
-0.064046673 -0.014780001 0.73900002 7.2784577e-39
-0.062469527 -0.014740001 0.73700005 7.6464962e-39
-0.061065719 -0.014740001 0.73700005 7.4631629e-39
-0.05966191 -0.014740001 0.73700005 7.1890521e-39
-0.058416195 -0.014780001 0.73900002 5.9865418e-39
-0.057008576 -0.014780001 0.73900002 4.7916238e-39
-0.050240956 -0.014860001 0.74300003 3.7692476e-39
-0.047538098 -0.014900001 0.74500006 4.8780601e-39
-0.044880003 -0.014960001 0.74800003 5.2396595e-39
-0.043571431 -0.015000001 0.75000006 5.3307776e-39
-0.042142861 -0.015000001 0.75000006 5.7903124e-39
-0.041148573 -0.015160001 0.75800002 6.3452826e-39
-0.039809525 -0.015200001 0.76000005 6.9016878e-39
-0.038412385 -0.015220001 0.76100004 7.4577146e-39
-0.037060004 -0.015260001 0.76300001 7.8297103e-39
-0.035700001 -0.015300001 0.76500005 8.2910598e-39
-0.034332383 -0.015340001 0.76700002 8.4733141e-39
-0.033000004 -0.015400001 0.77000004 8.7480905e-39
-0.031615239 -0.015440001 0.77200001 8.839912e-39
-0.10467619 -0.013716191 0.75800002 4.6864858e-39
-0.10323239 -0.013716191 0.75800002 4.8701554e-39
-0.10138572 -0.013661906 0.75500005 4.9609133e-39
-0.09968286 -0.013625715 0.75300002 4.9605531e-39
-0.098248579 -0.013625715 0.75300002 4.9612944e-39
-0.096685722 -0.01360762 0.75200003 5.327584e-39
-0.095253341 -0.01360762 0.75200003 5.7013706e-39
-0.093571432 -0.013571429 0.75000006 5.8914847e-39
-0.091897152 -0.013535239 0.74800003 6.0737502e-39
-0.090351433 -0.013517144 0.74700004 6.2599618e-39
-0.088690482 -0.013480953 0.74500006 6.3517734e-39
-0.087037146 -0.013444763 0.74300003 6.1759707e-39
-0.08550667 -0.013426668 0.74200004 5.893284e-39
-0.08409334 -0.013426668 0.74200004 4.7819268e-39
-0.082457148 -0.013390477 0.74000001 3.5851871e-39
-0.081047624 -0.013390477 0.74000001 3.8581754e-39
-0.079638101 -0.013390477 0.74000001 4.0479519e-39
-0.078122862 -0.013372382 0.73900002 4.6065053e-39
-0.076715246 -0.013372382 0.73900002 5.1579106e-39
-0.075307623 -0.013372382 0.73900002 5.716492e-39
-0.073900007 -0.013372382 0.73900002 6.2649784e-39
-0.072492383 -0.013372382 0.73900002 5.8021982e-39
-0.071180955 -0.013390477 0.74000001 5.3437438e-39
-0.069771431 -0.013390477 0.74000001 5.4341514e-39
-0.068361908 -0.013390477 0.74000001 5.4366737e-39
-0.066952385 -0.013390477 0.74000001 5.9912866e-39
-0.065542862 -0.013390477 0.74000001 6.4504697e-39
-0.064133339 -0.013390477 0.74000001 7.0943986e-39
-0.06263905 -0.013372382 0.73900002 7.6446843e-39
-0.061231434 -0.013372382 0.73900002 7.3709616e-39
-0.059904765 -0.013390477 0.74000001 6.9974946e-39
-0.058495242 -0.013390477 0.74000001 5.6055876e-39
-0.057085719 -0.013390477 0.74000001 4.1390867e-39
-0.051656194 -0.013444763 0.74300003 3.3100449e-39
-0.050376195 -0.013480953 0.74500006 4.1369343e-39
-0.049088575 -0.013517144 0.74700004 4.8744882e-39
-0.047729526 -0.013535239 0.74800003 4.9677586e-39
-0.046428576 -0.013571429 0.75000006 4.9648817e-39
-0.045120005 -0.01360762 0.75200003 5.1446011e-39
-0.043687623 -0.01360762 0.75200003 5.3289825e-39
-0.042255241 -0.01360762 0.75200003 5.6963189e-39
-0.039861906 -0.013770477 0.76100004 6.6272589e-39
-0.038513336 -0.013806667 0.76300001 7.275124e-39
-0.037157144 -0.013842858 0.76500005 7.7396783e-39
-0.035793334 -0.013879049 0.76700002 8.1985125e-39
-0.034466669 -0.013933334 0.77000004 8.5647951e-39
-0.033000004 -0.013933334 0.77000004 8.8399386e-39
-0.031738099 -0.014023811 0.77500004 9.114006e-39
-0.10219143 -0.012320953 0.76100004 5.2353449e-39
-0.10060953 -0.012304762 0.76000005 4.8680002e-39
-0.09864001 -0.012240001 0.75600004 4.5921448e-39
-0.097200006 -0.012240001 0.75600004 4.8680198e-39
-0.095633343 -0.01222381 0.75500005 5.2353632e-39
-0.093820959 -0.012175239 0.75200003 5.3322209e-39
-0.092142865 -0.012142858 0.75000006 5.5173759e-39
-0.090472385 -0.012110477 0.74800003 5.4263055e-39
-0.088690482 -0.012061905 0.74500006 5.4259089e-39
-0.087037146 -0.012029525 0.74300003 5.2465035e-39
-0.085621908 -0.012029525 0.74300003 5.1586169e-39
-0.084206671 -0.012029525 0.74300003 4.6915487e-39
-0.082680002 -0.012013334 0.74200004 4.319169e-39
-0.081266671 -0.012013334 0.74200004 4.5074867e-39
-0.079638101 -0.011980954 0.74000001 4.6940332e-39
-0.078228578 -0.011980954 0.74000001 5.3419081e-39
-0.076819055 -0.011980954 0.74000001 5.9898279e-39
-0.075409532 -0.011980954 0.74000001 6.4501292e-39
-0.074000008 -0.011980954 0.74000001 7.0018274e-39
-0.072590478 -0.011980954 0.74000001 6.2649574e-39
-0.071180955 -0.011980954 0.74000001 5.5295602e-39
-0.069771431 -0.011980954 0.74000001 5.1579162e-39
-0.068546668 -0.012013334 0.74200004 4.8824251e-39
-0.067133337 -0.012013334 0.74200004 4.974276e-39
-0.065720007 -0.012013334 0.74200004 5.1615273e-39
-0.064306669 -0.012013334 0.74200004 4.7905896e-39
-0.062893339 -0.012013334 0.74200004 4.5172369e-39
-0.061480004 -0.012013334 0.74200004 4.2399368e-39
-0.06006667 -0.012013334 0.74200004 4.0594832e-39
-0.058653336 -0.012013334 0.74200004 3.6795729e-39
-0.057240006 -0.012013334 0.74200004 3.3986617e-39
-0.055826671 -0.012013334 0.74200004 3.3093121e-39
-0.053071432 -0.012029525 0.74300003 3.0341629e-39
-0.050376195 -0.012061905 0.74500006 4.5089244e-39
-0.049088575 -0.012094286 0.74700004 6.2548905e-39
-0.047729526 -0.012110477 0.74800003 5.7006629e-39
-0.046428576 -0.012142858 0.75000006 5.2382456e-39
-0.045120005 -0.012175239 0.75200003 5.4204705e-39
-0.043687623 -0.012175239 0.75200003 5.6030541e-39
-0.042255241 -0.012175239 0.75200003 5.7870726e-39
-0.041420002 -0.012353335 0.76300001 6.062956e-39
-0.039966669 -0.012353335 0.76300001 6.716942e-39
-0.038614288 -0.012385715 0.76500005 7.3676826e-39
-0.037254289 -0.012418096 0.76700002 7.9219242e-39
-0.035840001 -0.012434287 0.76800001 8.4733085e-39
-0.034466669 -0.012466667 0.77000004 8.6573508e-39
-0.033128574 -0.012515238 0.77300006 8.9321455e-39
-0.031738099 -0.01254762 0.77500004 9.0243439e-39
-0.10418572 -0.010928572 0.76500005 5.4193873e-39
-0.10246 -0.010900001 0.76300001 5.419739e-39
-0.10074191 -0.010871429 0.76100004 4.8676428e-39
-0.098900959 -0.010828572 0.75800002 4.2251615e-39
-0.097457148 -0.010828572 0.75800002 4.5003191e-39
-0.095760003 -0.0108 0.75600004 4.6843446e-39
-0.093945719 -0.010757144 0.75300002 4.7761759e-39
-0.092388578 -0.010742858 0.75200003 4.8698331e-39
-0.090714291 -0.010714286 0.75000006 4.685474e-39
-0.08892858 -0.010671429 0.74700004 4.4110199e-39
-0.087271437 -0.010642858 0.74500006 4.4092024e-39
-0.085852385 -0.010642858 0.74500006 4.3227549e-39
-0.084206671 -0.010614286 0.74300003 4.6901053e-39
-0.082791433 -0.010614286 0.74300003 4.969939e-39
-0.081376195 -0.010614286 0.74300003 5.1586547e-39
-0.079853341 -0.010600001 0.74200004 5.3423145e-39
-0.078228578 -0.01057143 0.74000001 6.0777033e-39
-0.076819055 -0.01057143 0.74000001 6.723444e-39
-0.075409532 -0.01057143 0.74000001 7.2751969e-39
-0.074200004 -0.010600001 0.74200004 7.7354366e-39
-0.072590478 -0.01057143 0.74000001 6.7266656e-39
-0.071373336 -0.010600001 0.74200004 5.7118032e-39
-0.069960006 -0.010600001 0.74200004 4.9695789e-39
-0.068546668 -0.010600001 0.74200004 4.2327439e-39
-0.067223817 -0.010614286 0.74300003 4.045487e-39
-0.065720007 -0.010600001 0.74200004 3.7717672e-39
-0.064306669 -0.010600001 0.74200004 2.5728765e-39
-0.062893339 -0.010600001 0.74200004 1.291127e-39
-0.061562862 -0.010614286 0.74300003 1.1957056e-39
-0.060147624 -0.010614286 0.74300003 1.1078049e-39
-0.058653336 -0.010600001 0.74200004 1.8378141e-39
-0.057317145 -0.010614286 0.74300003 2.5724869e-39
-0.055901907 -0.010614286 0.74300003 2.6646699e-39
-0.05179524 -0.010642858 0.74500006 2.1187268e-39
-0.050511431 -0.010671429 0.74700004 4.8853062e-39
-0.049154289 -0.010685715 0.74800003 7.5427833e-39
-0.047857147 -0.010714286 0.75000006 6.5254069e-39
-0.046552382 -0.010742858 0.75200003 5.4212104e-39
-0.045180004 -0.010757144 0.75300002 5.6041471e-39
-0.043745719 -0.010757144 0.75300002 5.7870866e-39
-0.042423811 -0.010785715 0.75500005 5.9700275e-39
-0.041420002 -0.010900001 0.76300001 6.1573026e-39
-0.039966669 -0.010900001 0.76300001 6.8094964e-39
-0.038614288 -0.010928572 0.76500005 7.4580972e-39
-0.037254289 -0.010957143 0.76700002 8.1070567e-39
-0.035840001 -0.010971429 0.76800001 8.6580683e-39
-0.034466669 -0.011000001 0.77000004 8.8428155e-39
-0.033085715 -0.011028572 0.77200001 8.9328629e-39
-0.031656191 -0.011042858 0.77300006 8.9325084e-39
-0.10418572 -0.0094714295 0.76500005 5.2378785e-39
-0.10246 -0.0094466675 0.76300001 5.3300615e-39
-0.10074191 -0.0094219055 0.76100004 4.9612734e-39
-0.099161908 -0.0094095245 0.76000005 4.5932223e-39
-0.09771429 -0.0094095245 0.76000005 4.8680184e-39
-0.096013337 -0.0093847625 0.75800002 5.2349932e-39
-0.094195247 -0.0093476195 0.75500005 5.1435067e-39
-0.092757151 -0.0093476195 0.75500005 5.0513222e-39
-0.091077149 -0.0093228575 0.75300002 4.6847061e-39
-0.089047626 -0.0092609534 0.74800003 4.3166383e-39
-0.087271437 -0.0092238104 0.74500006 3.9500039e-39
-0.085852385 -0.0092238104 0.74500006 3.4915579e-39
-0.08443334 -0.0092238104 0.74500006 4.41997e-39
-0.082791433 -0.0091990484 0.74300003 5.2526496e-39
-0.081376195 -0.0091990484 0.74300003 5.5282177e-39
-0.079960957 -0.0091990484 0.74300003 5.7140131e-39
-0.078440003 -0.0091866674 0.74200004 6.1742373e-39
-0.077026673 -0.0091866674 0.74200004 6.5405003e-39
-0.075715244 -0.0091990484 0.74300003 6.5404961e-39
-0.074300006 -0.0091990484 0.74300003 6.6316184e-39
-0.072786674 -0.0091866674 0.74200004 5.7103963e-39
-0.07146953 -0.0091990484 0.74300003 4.7945329e-39
-0.070054293 -0.0091990484 0.74300003 4.509321e-39
-0.068639055 -0.0091990484 0.74300003 4.1358694e-39
-0.067223817 -0.0091990484 0.74300003 4.319169e-39
-0.065808579 -0.0091990484 0.74300003 4.4095626e-39
-0.064393334 -0.0091990484 0.74300003 3.3071709e-39
-0.062978096 -0.0091990484 0.74300003 2.2051477e-39
-0.061562862 -0.0091990484 0.74300003 1.6548536e-39
-0.060147624 -0.0091990484 0.74300003 1.1038308e-39
-0.058732383 -0.0091990484 0.74300003 1.7466695e-39
-0.057317145 -0.0091990484 0.74300003 2.4806388e-39
-0.050714288 -0.0092857145 0.75000006 5.0647439e-39
-0.049285717 -0.0092857145 0.75000006 6.536225e-39
-0.047984764 -0.0093104765 0.75200003 5.9751282e-39
-0.046614289 -0.0093228575 0.75300002 5.4190706e-39
-0.045300003 -0.0093476195 0.75500005 5.6034352e-39
-0.043861907 -0.0093476195 0.75500005 5.7870908e-39
-0.042480003 -0.0093600005 0.75600004 5.7867153e-39
-0.041420002 -0.0094466675 0.76300001 5.7867335e-39
-0.040071432 -0.0094714295 0.76500005 6.6222395e-39
-0.038614288 -0.0094714295 0.76500005 7.4559588e-39
-0.037302859 -0.0095085725 0.76800001 8.0123766e-39
-0.035840001 -0.0095085725 0.76800001 8.5662468e-39
-0.034466669 -0.0095333336 0.77000004 8.6577096e-39
-0.033128574 -0.0095704766 0.77300006 8.7488332e-39
-0.031738099 -0.0095952386 0.77500004 8.8395967e-39
-0.10418572 -0.0080142859 0.76500005 5.0559886e-39
-0.10272858 -0.0080142859 0.76500005 5.1467422e-39
-0.10100667 -0.007993334 0.76300001 5.0541837e-39
-0.09929239 -0.0079723811 0.76100004 4.9609175e-39
-0.097842865 -0.0079723811 0.76100004 5.3271889e-39
-0.096013337 -0.0079409527 0.75800002 5.6945252e-39
-0.094320007 -0.0079200007 0.75600004 5.5108486e-39
-0.092880003 -0.0079200007 0.75600004 5.2353464e-39
-0.091319054 -0.0079095243 0.75500005 4.7765332e-39
-0.089523815 -0.0078780958 0.75200003 4.2262335e-39
-0.087505721 -0.0078257145 0.74700004 3.4908279e-39
-0.086082861 -0.0078257145 0.74700004 2.6729376e-39
-0.08443334 -0.0078047626 0.74500006 4.1530885e-39
-0.083014295 -0.0078047626 0.74500006 5.5281435e-39
-0.081595242 -0.0078047626 0.74500006 5.8033262e-39
-0.079960957 -0.0077838101 0.74300003 6.0809725e-39
-0.078545719 -0.0077838101 0.74300003 6.272523e-39
-0.077130482 -0.0077838101 0.74300003 6.359318e-39
-0.075715244 -0.0077838101 0.74300003 5.8979685e-39
-0.074300006 -0.0077838101 0.74300003 5.4305486e-39
-0.072884768 -0.0077838101 0.74300003 4.688697e-39
-0.07146953 -0.0077838101 0.74300003 3.8650292e-39
-0.070054293 -0.0077838101 0.74300003 3.9529004e-39
-0.068639055 -0.0077838101 0.74300003 4.0432954e-39
-0.067404769 -0.0078047626 0.74500006 4.5932266e-39
-0.065985717 -0.0078047626 0.74500006 5.0520411e-39
-0.064566672 -0.0078047626 0.74500006 4.1333246e-39
-0.063147627 -0.0078047626 0.74500006 3.1242145e-39
-0.061728574 -0.0078047626 0.74500006 2.1147458e-39
-0.060309529 -0.0078047626 0.74500006 1.0123611e-39
-0.058890481 -0.0078047626 0.74500006 1.74848e-39
-0.057471432 -0.0078047626 0.74500006 2.3924144e-39
-0.056052383 -0.0078047626 0.74500006 3.5830571e-39
-0.053357147 -0.0078257145 0.74700004 4.9760235e-39
-0.052142862 -0.0078571429 0.75000006 5.1579526e-39
-0.050849527 -0.0078780958 0.75200003 5.3441852e-39
-0.049417146 -0.0078780958 0.75200003 5.5202738e-39
-0.048048574 -0.0078885723 0.75300002 5.4194209e-39
-0.046614289 -0.0078885723 0.75300002 5.32757e-39
-0.045480002 -0.0079409527 0.75800002 5.5115857e-39
-0.044036195 -0.0079409527 0.75800002 5.6952469e-39
-0.042592384 -0.0079409527 0.75800002 5.6030443e-39
-0.041528575 -0.0080142859 0.76500005 5.4222599e-39
-0.040071432 -0.0080142859 0.76500005 6.4364147e-39
-0.03871524 -0.0080352388 0.76700002 7.3612422e-39
-0.037302859 -0.0080457143 0.76800001 7.9198026e-39
-0.035840001 -0.0080457143 0.76800001 8.4722477e-39
-0.034466669 -0.0080666672 0.77000004 8.5640804e-39
-0.033128574 -0.0080980957 0.77300006 8.5640776e-39
-0.10272858 -0.0065571433 0.76500005 5.054541e-39
-0.10100667 -0.0065400004 0.76300001 5.054541e-39
-0.099553339 -0.0065400004 0.76300001 5.0531075e-39
-0.098100007 -0.0065400004 0.76300001 5.2360624e-39
-0.096266672 -0.0065142862 0.76000005 5.5115675e-39
-0.094569527 -0.0064971433 0.75800002 5.3278951e-39
-0.093125723 -0.0064971433 0.75800002 5.1438654e-39
-0.091440007 -0.0064800004 0.75600004 4.6857641e-39
-0.089880958 -0.006471429 0.75500005 4.3202172e-39
-0.088091433 -0.0064457147 0.75200003 3.9561038e-39
-0.086428575 -0.0064285719 0.75000006 3.5963232e-39
-0.084660009 -0.0064028576 0.74700004 4.4243042e-39
-0.083014295 -0.0063857147 0.74500006 5.2501146e-39
-0.081595242 -0.0063857147 0.74500006 5.0628633e-39
-0.080176197 -0.0063857147 0.74500006 4.7884372e-39
-0.075715244 -0.0063685719 0.74300003 4.7880126e-39
-0.074300006 -0.0063685719 0.74300003 4.5031917e-39
-0.072884768 -0.0063685719 0.74300003 4.1369371e-39
-0.07146953 -0.0063685719 0.74300003 3.8606964e-39
-0.070242859 -0.0063857147 0.74500006 3.8606796e-39
-0.068823814 -0.0063857147 0.74500006 3.9503627e-39
-0.067404769 -0.0063857147 0.74500006 4.2258692e-39
-0.065985717 -0.0063857147 0.74500006 4.5006582e-39
-0.064566672 -0.0063857147 0.74500006 3.7670504e-39
-0.063147627 -0.0063857147 0.74500006 3.0334496e-39
-0.061728574 -0.0063857147 0.74500006 2.6650371e-39
-0.060309529 -0.0063857147 0.74500006 2.3884656e-39
-0.058890481 -0.0063857147 0.74500006 3.9590059e-39
-0.056202862 -0.0064028576 0.74700004 5.7085789e-39
-0.054780003 -0.0064028576 0.74700004 5.7139556e-39
-0.053571433 -0.0064285719 0.75000006 5.9901754e-39
-0.052281909 -0.0064457147 0.75200003 6.1763953e-39
-0.050917145 -0.0064542862 0.75300002 5.615017e-39
-0.04948286 -0.0064542862 0.75300002 5.056053e-39
-0.048176195 -0.006471429 0.75500005 5.0531229e-39
-0.046800002 -0.0064800004 0.75600004 5.0513236e-39
-0.045480002 -0.0064971433 0.75800002 5.1442283e-39
-0.044036195 -0.0064971433 0.75800002 5.3278979e-39
-0.042704765 -0.0065142862 0.76000005 5.1460178e-39
-0.041528575 -0.0065571433 0.76500005 5.0567116e-39
-0.040071432 -0.0065571433 0.76500005 6.1609068e-39
-0.038614288 -0.0065571433 0.76500005 7.1739727e-39
-0.037254289 -0.0065742861 0.76700002 7.9179879e-39
-0.035793334 -0.0065742861 0.76700002 8.5637133e-39
-0.034332383 -0.0065742861 0.76700002 8.6562732e-39
-0.03321429 -0.0066428576 0.77500004 8.7481003e-39
-0.10127144 -0.0051000002 0.76500005 4.9641404e-39
-0.099553339 -0.0050866669 0.76300001 5.0541837e-39
-0.098100007 -0.0050866669 0.76300001 5.2364211e-39
-0.096266672 -0.0050666672 0.76000005 5.328614e-39
-0.094569527 -0.0050533335 0.75800002 5.1453003e-39
-0.093125723 -0.0050533335 0.75800002 4.9609119e-39
-0.091440007 -0.0050400002 0.75600004 4.6854054e-39
-0.089880958 -0.0050333338 0.75500005 4.3209346e-39
-0.088208579 -0.0050200005 0.75300002 4.4174351e-39
-0.086659051 -0.0050133336 0.75200003 4.5118055e-39
-0.084773339 -0.0049866671 0.74800003 4.7898483e-39
-0.083237149 -0.0049800002 0.74700004 4.9677712e-39
-0.081814289 -0.0049800002 0.74700004 4.2255469e-39
-0.078757145 -0.0049666669 0.74500006 3.6777653e-39
-0.077338099 -0.0049666669 0.74500006 3.8653655e-39
-0.075919054 -0.0049666669 0.74500006 3.6770142e-39
-0.074500002 -0.0049666669 0.74500006 3.4937075e-39
-0.073080957 -0.0049666669 0.74500006 3.6784603e-39
-0.071661912 -0.0049666669 0.74500006 3.7695699e-39
-0.070242859 -0.0049666669 0.74500006 3.770279e-39
-0.069008574 -0.0049800002 0.74700004 3.7681266e-39
-0.067585722 -0.0049800002 0.74700004 3.8596034e-39
-0.066162862 -0.0049800002 0.74700004 3.8592446e-39
-0.064740002 -0.0049800002 0.74700004 3.4004259e-39
-0.063147627 -0.0049666669 0.74500006 2.8486996e-39
-0.06189429 -0.0049800002 0.74700004 3.3068051e-39
-0.060471434 -0.0049800002 0.74700004 3.6809869e-39
-0.059048574 -0.0049800002 0.74700004 6.2681874e-39
-0.057625718 -0.0049800002 0.74700004 8.8381674e-39
-0.054853339 -0.0049866671 0.74800003 6.72666e-39
-0.053571433 -0.0050000004 0.75000006 7.0021371e-39
-0.052281909 -0.0050133336 0.75200003 7.1801006e-39
-0.050917145 -0.0050200005 0.75300002 5.8825977e-39
-0.04948286 -0.0050200005 0.75300002 4.5028666e-39
-0.048240002 -0.0050400002 0.75600004 4.5932195e-39
-0.046800002 -0.0050400002 0.75600004 4.6846949e-39
-0.045480002 -0.0050533335 0.75800002 4.7772451e-39
-0.044152383 -0.0050666672 0.76000005 4.8705141e-39
-0.042760957 -0.0050733336 0.76100004 4.779752e-39
-0.041420002 -0.0050866669 0.76300001 4.6900843e-39
-0.040071432 -0.0051000002 0.76500005 5.8850374e-39
-0.038614288 -0.0051000002 0.76500005 6.9942352e-39
-0.037254289 -0.0051133335 0.76700002 7.830439e-39
-0.035793334 -0.0051133335 0.76700002 8.6566166e-39
-0.10313144 -0.0036571431 0.76800001 4.9609119e-39
-0.1015362 -0.0036523812 0.76700002 4.7786758e-39
-0.10007524 -0.0036523812 0.76700002 4.5950062e-39
-0.098357148 -0.0036428573 0.76500005 5.1456604e-39
-0.096393339 -0.0036238097 0.76100004 5.6041205e-39
-0.094819054 -0.0036190478 0.76000005 5.3286126e-39
-0.093125723 -0.0036095241 0.75800002 4.9612706e-39
-0.091681913 -0.0036095241 0.75800002 4.7775996e-39
-0.090000004 -0.0036000002 0.75600004 4.502812e-39
-0.088442862 -0.0035952383 0.75500005 4.5978775e-39
-0.08677429 -0.0035857146 0.75300002 4.6922465e-39
-0.085000008 -0.0035714288 0.75000006 5.064273e-39
-0.08334858 -0.0035619049 0.74800003 5.3304301e-39
-0.081814289 -0.003557143 0.74700004 4.5017344e-39
-0.080391437 -0.003557143 0.74700004 3.5823032e-39
-0.078968577 -0.003557143 0.74700004 3.4919026e-39
-0.074700005 -0.003557143 0.74700004 3.0341601e-39
-0.073277146 -0.003557143 0.74700004 3.2185486e-39
-0.071854293 -0.003557143 0.74700004 3.4933376e-39
-0.070525721 -0.0035619049 0.74800003 3.4015021e-39
-0.069285721 -0.0035714288 0.75000006 3.3089491e-39
-0.067676194 -0.0035619049 0.74800003 3.4007846e-39
-0.066251434 -0.0035619049 0.74800003 3.4922614e-39
-0.064826667 -0.0035619049 0.74800003 2.6650245e-39
-0.06331715 -0.003557143 0.74700004 1.9299846e-39
-0.06189429 -0.003557143 0.74700004 3.6806001e-39
-0.060471434 -0.003557143 0.74700004 5.424076e-39
-0.059127621 -0.0035619049 0.74800003 6.6326805e-39
-0.057702862 -0.0035619049 0.74800003 7.9248599e-39
-0.055000003 -0.0035714288 0.75000006 5.8079491e-39
-0.05371429 -0.0035809525 0.75200003 5.1585888e-39
-0.052351434 -0.0035857146 0.75300002 4.5168432e-39
-0.050917145 -0.0035857146 0.75300002 4.3220781e-39
-0.04981143 -0.0036095241 0.75800002 4.1329925e-39
-0.048367623 -0.0036095241 0.75800002 4.5010169e-39
-0.046923812 -0.0036095241 0.75800002 4.8683617e-39
-0.045600004 -0.0036190478 0.76000005 4.8708742e-39
-0.044152383 -0.0036190478 0.76000005 4.9641433e-39
-0.042760957 -0.0036238097 0.76100004 4.2305327e-39
-0.041528575 -0.0036428573 0.76500005 3.4972962e-39
-0.040071432 -0.0036428573 0.76500005 4.9702641e-39
-0.03871524 -0.0036523812 0.76700002 6.5361227e-39
-0.037400004 -0.0036666668 0.77000004 7.9204612e-39
-0.035840001 -0.0036571431 0.76800001 9.3920096e-39
-0.10299715 -0.0021914288 0.76700002 5.0534662e-39
-0.1015362 -0.0021914288 0.76700002 4.5942901e-39
-0.10020572 -0.0021942859 0.76800001 4.1354882e-39
-0.09861429 -0.0021914288 0.76700002 5.0545788e-39
-0.096900009 -0.0021857144 0.76500005 5.8800053e-39
-0.095193341 -0.0021800001 0.76300001 5.4204523e-39
-0.093740009 -0.0021800001 0.76300001 4.9609147e-39
-0.091681913 -0.0021657145 0.75800002 4.8683589e-39
-0.090000004 -0.0021600001 0.75600004 4.6857697e-39
-0.088560008 -0.0021600001 0.75600004 4.7790457e-39
-0.087004766 -0.0021571431 0.75500005 4.8787804e-39
-0.08522667 -0.0021485717 0.75200003 5.3519554e-39
-0.083794288 -0.0021485717 0.75200003 5.7074508e-39
-0.08214286 -0.0021428573 0.75000006 4.6854152e-39
-0.080499053 -0.0021371429 0.74800003 3.6745031e-39
-0.077545717 -0.0021342859 0.74700004 2.7579375e-39
-0.076122865 -0.0021342859 0.74700004 2.6678943e-39
-0.074800007 -0.0021371429 0.74800003 2.4835059e-39
-0.07337524 -0.0021371429 0.74800003 2.8512066e-39
-0.072142862 -0.0021428573 0.75000006 3.1256369e-39
-0.070714287 -0.0021428573 0.75000006 2.9416071e-39
-0.069285721 -0.0021428573 0.75000006 2.7582963e-39
-0.067857146 -0.0021428573 0.75000006 2.942326e-39
