# .PCD v0.7 - Point Cloud Data file format
VERSION 0.7
FIELDS x y z rgb
SIZE 4 4 4 4
TYPE F F F F
COUNT 1 1 1 1
WIDTH 970
HEIGHT 1
VIEWPOINT 0 0 0 1 0 0 0
POINTS 970
DATA ascii
-0.041198097 -0.050779052 1.006 9.2794419e-39
-0.039164763 -0.050627623 1.003 9.2829759e-39
-0.037254289 -0.050627623 1.003 9.7421002e-39
-0.035238098 -0.050476193 1 1.0199841e-38
-0.033333335 -0.050476193 1 9.8292693e-39
-0.031428572 -0.050476193 1 9.4594176e-39
-0.029346669 -0.050173335 0.99400002 9.4594176e-39
-0.027453335 -0.050173335 0.99400002 9.459419e-39
-0.025560001 -0.050173335 0.99400002 9.5512545e-39
-0.02359524 -0.050021909 0.99100006 9.64309e-39
-0.02170762 -0.050021909 0.99100006 9.8296295e-39
-0.019820001 -0.050021909 0.99100006 1.0108014e-38
-0.017932381 -0.050021909 0.99100006 1.0383529e-38
-0.016044764 -0.050021909 0.99100006 1.0657264e-38
-0.014114287 -0.04987048 0.98800004 1.0476126e-38
-0.012269525 -0.050021909 0.99100006 1.0199897e-38
-0.010381905 -0.050021909 0.99100006 1.0015863e-38
-0.0084942859 -0.050021909 0.99100006 9.832589e-39
-0.0065866672 -0.04987048 0.98800004 9.7397138e-39
-0.0047047623 -0.04987048 0.98800004 9.646753e-39
-0.0028228574 -0.04987048 0.98800004 9.6449103e-39
-0.00094095245 -0.04987048 0.98800004 9.7353039e-39
0.00094380957 -0.050021909 0.99100006 9.1839252e-39
0.0028314288 -0.050021909 0.99100006 8.7247687e-39
0.0047047623 -0.04987048 0.98800004 9.0028059e-39
0.0065866672 -0.04987048 0.98800004 9.3748142e-39
0.0084685721 -0.04987048 0.98800004 9.4716748e-39
0.010350477 -0.04987048 0.98800004 9.5674507e-39
0.012269525 -0.050021909 0.99100006 9.2051254e-39
-0.10176953 -0.051388577 1.0580001 5.519824e-39
-0.099754289 -0.051388577 1.0580001 5.3350782e-39
-0.097739056 -0.051388577 1.0580001 5.1510582e-39
-0.095452391 -0.051242862 1.0550001 5.5187674e-39
-0.093177147 -0.051097147 1.052 5.8875541e-39
-0.090826675 -0.050902862 1.0480001 6.4389356e-39
-0.088830478 -0.050902862 1.0480001 6.9013431e-39
-0.086585723 -0.050757147 1.0450001 7.178646e-39
-0.084595241 -0.050757147 1.0450001 7.3641163e-39
-0.082367621 -0.050611433 1.0420001 7.5535326e-39
-0.080151431 -0.050465718 1.039 7.6432087e-39
-0.077720955 -0.050174288 1.033 7.7353973e-39
-0.075533338 -0.050028574 1.0300001 7.7300023e-39
-0.073571436 -0.050028574 1.0300001 7.7217389e-39
-0.071331434 -0.049834289 1.026 7.6263217e-39
-0.06917429 -0.049688574 1.023 7.6245322e-39
-0.067225717 -0.049688574 1.023 7.6234434e-39
-0.065085717 -0.049542859 1.0200001 7.6227147e-39
-0.063142858 -0.049542859 1.0200001 7.5308764e-39
-0.061020005 -0.049397144 1.0170001 7.5308736e-39
-0.059082862 -0.049397144 1.0170001 7.5308722e-39
-0.056977145 -0.049251433 1.0140001 7.7145418e-39
-0.055045716 -0.049251433 1.0140001 7.8063773e-39
-0.052957147 -0.049105719 1.011 7.8063773e-39
-0.051031433 -0.049105719 1.011 7.8063773e-39
-0.049105719 -0.049105719 1.011 8.0818838e-39
-0.047040004 -0.048960004 1.008 8.2655604e-39
-0.045030478 -0.04886286 1.006 9.00025e-39
-0.04311429 -0.04886286 1.006 9.6456376e-39
-0.041075241 -0.048717145 1.003 9.4652246e-39
-0.039047621 -0.04857143 1 9.1882538e-39
-0.037142858 -0.04857143 1 9.3711779e-39
-0.035238098 -0.04857143 1 9.5537685e-39
-0.033333335 -0.04857143 1 9.4594162e-39
-0.031334288 -0.048425719 0.99700004 9.2757452e-39
-0.029346669 -0.048280004 0.99400002 9.2757466e-39
-0.027370477 -0.04813429 0.99100006 9.183914e-39
-0.025482859 -0.04813429 0.99100006 9.4594232e-39
-0.023523811 -0.047988575 0.98800004 9.7360171e-39
-0.021641906 -0.047988575 0.98800004 9.9232881e-39
-0.019760001 -0.047988575 0.98800004 1.0108749e-38
-0.017878097 -0.047988575 0.98800004 1.0199862e-38
-0.015996192 -0.047988575 0.98800004 1.029137e-38
-0.014114287 -0.047988575 0.98800004 1.0203153e-38
-0.012232382 -0.047988575 0.98800004 1.011022e-38
-0.010350477 -0.047988575 0.98800004 1.0015133e-38
-0.0084685721 -0.047988575 0.98800004 9.8296883e-39
-0.0065866672 -0.047988575 0.98800004 9.8279129e-39
-0.0047047623 -0.047988575 0.98800004 9.7360494e-39
-0.0028228574 -0.047988575 0.98800004 9.5512728e-39
-0.00093809533 -0.04784286 0.98500007 9.2757593e-39
0.00094380957 -0.04813429 0.99100006 9.3675891e-39
0.0028228574 -0.047988575 0.98800004 9.3679745e-39
0.0047047623 -0.047988575 0.98800004 9.36872e-39
0.0065866672 -0.047988575 0.98800004 9.3723017e-39
0.0084685721 -0.047988575 0.98800004 9.6503151e-39
0.010350477 -0.047988575 0.98800004 9.838651e-39
0.012232382 -0.047988575 0.98800004 9.2036961e-39
0.014157143 -0.04813429 0.99100006 8.563014e-39
-0.099754289 -0.049373336 1.0580001 4.8758965e-39
-0.097739056 -0.049373336 1.0580001 4.8758965e-39
-0.095452391 -0.049233336 1.0550001 5.2446734e-39
-0.093177147 -0.049093336 1.052 5.5212659e-39
-0.091173336 -0.049093336 1.052 6.0737236e-39
-0.088830478 -0.048906669 1.0480001 6.6261771e-39
-0.086834289 -0.048906669 1.0480001 6.7183755e-39
-0.084595241 -0.048766669 1.0450001 6.9006242e-39
-0.082367621 -0.048626669 1.0420001 7.0889699e-39
-0.080151431 -0.048486669 1.039 7.3655414e-39
-0.07794667 -0.048346668 1.036 7.3637365e-39
-0.075753339 -0.048206668 1.033 7.4501742e-39
-0.073571436 -0.048066668 1.0300001 7.44621e-39
-0.071331434 -0.047880001 1.026 7.5337561e-39
-0.06917429 -0.047740005 1.023 7.3486656e-39
-0.067225717 -0.047740005 1.023 7.1635471e-39
-0.065085717 -0.047600005 1.0200001 7.347204e-39
-0.063142858 -0.047600005 1.0200001 7.4390381e-39
-0.061020005 -0.047460005 1.0170001 7.4390353e-39
-0.059082862 -0.047460005 1.0170001 7.4390353e-39
-0.056977145 -0.047320005 1.0140001 7.6227063e-39
-0.055045716 -0.047320005 1.0140001 7.8063773e-39
-0.052957147 -0.047180004 1.011 7.8982128e-39
-0.051031433 -0.047180004 1.011 7.9900483e-39
-0.048960004 -0.047040004 1.008 8.1737193e-39
-0.046946671 -0.046946671 1.006 8.449237e-39
-0.045030478 -0.046946671 1.006 8.9098592e-39
-0.042985719 -0.046806671 1.003 9.3708346e-39
-0.040952384 -0.046666671 1 9.1868076e-39
-0.039047621 -0.046666671 1 9.0931729e-39
-0.037142858 -0.046666671 1 9.1850028e-39
-0.035132382 -0.04652667 0.99700004 9.2757537e-39
-0.033233337 -0.04652667 0.99700004 9.1839097e-39
-0.031240001 -0.04638667 0.99400002 9.0920743e-39
-0.029258097 -0.04624667 0.99100006 9.0920743e-39
-0.027370477 -0.04624667 0.99100006 9.0920799e-39
-0.025482859 -0.04624667 0.99100006 9.1839196e-39
-0.023523811 -0.04610667 0.98800004 9.3676158e-39
-0.021641906 -0.04610667 0.98800004 9.5548993e-39
-0.019760001 -0.04610667 0.98800004 9.8368462e-39
-0.017878097 -0.04610667 0.98800004 9.8314484e-39
-0.015947619 -0.04596667 0.98500007 9.9208134e-39
-0.014071429 -0.04596667 0.98500007 9.9247987e-39
-0.012195239 -0.04596667 0.98500007 9.9301404e-39
-0.010319049 -0.04596667 0.98500007 9.831091e-39
-0.0084428573 -0.04596667 0.98500007 9.8271464e-39
-0.006566667 -0.04596667 0.98500007 9.8271464e-39
-0.0046904767 -0.04596667 0.98500007 9.8267792e-39
-0.0028142859 -0.04596667 0.98500007 9.6430998e-39
-0.00093809533 -0.04596667 0.98500007 9.4594232e-39
0.00093809533 -0.04596667 0.98500007 9.5512517e-39
0.0028142859 -0.04596667 0.98500007 9.643481e-39
0.0046904767 -0.04596667 0.98500007 9.3701619e-39
0.0065866672 -0.04610667 0.98800004 9.1871958e-39
0.0084685721 -0.04610667 0.98800004 9.3715702e-39
0.010350477 -0.04610667 0.98800004 9.5552496e-39
0.012232382 -0.04610667 0.98800004 9.1039727e-39
0.014114287 -0.04610667 0.98800004 8.7420215e-39
0.015996192 -0.04610667 0.98800004 8.8360192e-39
-0.095452391 -0.047223814 1.0550001 4.8791321e-39
-0.093442865 -0.047223814 1.0550001 5.1542868e-39
-0.091173336 -0.047089528 1.052 5.7078194e-39
-0.088830478 -0.04691048 1.0480001 6.2595582e-39
-0.086834289 -0.04691048 1.0480001 6.3514035e-39
-0.084595241 -0.046776194 1.0450001 6.3510434e-39
-0.082367621 -0.046641909 1.0420001 6.7201776e-39
-0.080151431 -0.046507623 1.039 7.0875154e-39
-0.07794667 -0.046373338 1.036 7.0867937e-39
-0.075753339 -0.046239052 1.033 7.0824721e-39
-0.073571436 -0.046104766 1.0300001 7.262539e-39
-0.071331434 -0.045925718 1.026 7.3508054e-39
-0.06917429 -0.045791432 1.023 7.0731647e-39
-0.067225717 -0.045791432 1.023 6.7047311e-39
-0.065085717 -0.045657147 1.0200001 7.0716989e-39
-0.063142858 -0.045657147 1.0200001 7.3472026e-39
-0.061020005 -0.045522861 1.0170001 7.3471998e-39
-0.059082862 -0.045522861 1.0170001 7.3471998e-39
-0.056977145 -0.045388576 1.0140001 7.6227063e-39
-0.055045716 -0.045388576 1.0140001 7.8063787e-39
-0.052957147 -0.04525429 1.011 7.9900497e-39
-0.051031433 -0.04525429 1.011 8.0818852e-39
-0.048960004 -0.045120005 1.008 8.3573917e-39
-0.046946671 -0.045030478 1.006 8.6339814e-39
-0.045030478 -0.045030478 1.006 8.818737e-39
-0.042985719 -0.044896193 1.003 9.0024066e-39
-0.040952384 -0.044761907 1 9.0016891e-39
-0.038930479 -0.044627622 0.99700004 8.9091375e-39
-0.037031431 -0.044627622 0.99700004 8.9084229e-39
-0.03502667 -0.044493336 0.99400002 8.9084131e-39
-0.033133335 -0.044493336 0.99400002 8.9084047e-39
-0.031240001 -0.044493336 0.99400002 8.9084033e-39
-0.029258097 -0.044359051 0.99100006 8.9084033e-39
-0.027287621 -0.044224765 0.98800004 8.9084075e-39
-0.025405716 -0.044224765 0.98800004 8.9084131e-39
-0.023523811 -0.044224765 0.98800004 8.9084271e-39
-0.021641906 -0.044224765 0.98800004 9.183949e-39
-0.019700002 -0.04409048 0.98500007 9.4619554e-39
-0.017823812 -0.04409048 0.98500007 9.4597932e-39
-0.015947619 -0.04409048 0.98500007 9.4605359e-39
-0.014071429 -0.04409048 0.98500007 9.5523952e-39
-0.012170477 -0.044000953 0.98300004 9.6467208e-39
-0.010298096 -0.044000953 0.98300004 9.735664e-39
-0.0084257144 -0.044000953 0.98300004 9.8271394e-39
-0.0065533337 -0.044000953 0.98300004 9.9186133e-39
-0.0046809525 -0.044000953 0.98300004 9.9186091e-39
-0.0028085716 -0.044000953 0.98300004 9.7349339e-39
-0.00093619054 -0.044000953 0.98300004 9.5512601e-39
0.00093619054 -0.044000953 0.98300004 9.7349283e-39
0.0028085716 -0.044000953 0.98300004 9.8311149e-39
0.0046809525 -0.044000953 0.98300004 9.465254e-39
0.006566667 -0.04409048 0.98500007 9.0046038e-39
0.0084428573 -0.04409048 0.98500007 9.0931729e-39
0.010319049 -0.04409048 0.98500007 9.1875349e-39
0.012232382 -0.044224765 0.98800004 9.0989448e-39
0.014114287 -0.044224765 0.98800004 8.9203059e-39
0.015947619 -0.04409048 0.98500007 8.9231856e-39
-0.095452391 -0.045214288 1.0550001 4.325615e-39
-0.093442865 -0.045214288 1.0550001 4.6929626e-39
-0.091173336 -0.045085717 1.052 4.9713431e-39
-0.089169532 -0.045085717 1.052 5.3419277e-39
-0.086834289 -0.04491429 1.0480001 5.7078474e-39
-0.084595241 -0.044785716 1.0450001 6.1659346e-39
-0.082367621 -0.044657145 1.0420001 6.5346975e-39
-0.079920009 -0.044400003 1.036 6.8098481e-39
-0.07794667 -0.044400003 1.036 6.8998927e-39
-0.075753339 -0.044271432 1.033 6.8970075e-39
-0.073571436 -0.044142861 1.0300001 6.9859563e-39
-0.071331434 -0.043971431 1.026 7.0749429e-39
-0.069377147 -0.043971431 1.026 6.9813334e-39
-0.067225717 -0.04384286 1.023 6.8880462e-39
-0.065085717 -0.043714289 1.0200001 7.0716989e-39
-0.063142858 -0.043714289 1.0200001 7.3472026e-39
-0.061020005 -0.043585718 1.0170001 7.3471998e-39
-0.059082862 -0.043585718 1.0170001 7.3471998e-39
-0.056977145 -0.043457147 1.0140001 7.4390353e-39
-0.054882862 -0.043328576 1.011 7.6227077e-39
-0.052957147 -0.043328576 1.011 7.8982156e-39
-0.050880004 -0.043200001 1.008 8.0818866e-39
-0.048960004 -0.043200001 1.008 8.3581106e-39
-0.046946671 -0.04311429 1.006 8.5432207e-39
-0.044896193 -0.042985719 1.003 8.6354191e-39
-0.042857144 -0.042857144 1 8.7258155e-39
-0.040952384 -0.042857144 1 8.7254511e-39
-0.038930479 -0.042728573 0.99700004 8.7247449e-39
-0.037031431 -0.042728573 0.99700004 8.7247547e-39
-0.03502667 -0.042600002 0.99400002 8.7247449e-39
-0.033133335 -0.042600002 0.99400002 8.7247337e-39
-0.031240001 -0.042600002 0.99400002 8.8165692e-39
-0.029169526 -0.04234286 0.98800004 8.8165678e-39
-0.027287621 -0.04234286 0.98800004 8.816572e-39
-0.025405716 -0.04234286 0.98800004 9.0002472e-39
-0.023452383 -0.042214289 0.98500007 9.0920869e-39
-0.021576192 -0.042214289 0.98500007 9.1839266e-39
-0.019700002 -0.042214289 0.98500007 9.2757593e-39
-0.017823812 -0.042214289 0.98500007 9.2757551e-39
-0.015915239 -0.042128574 0.98300004 9.1839294e-39
-0.014042858 -0.042128574 0.98300004 9.0006255e-39
-0.012170477 -0.042128574 0.98300004 8.8169503e-39
-0.010298096 -0.042128574 0.98300004 9.0924526e-39
-0.0084257144 -0.042128574 0.98300004 9.4594317e-39
-0.0065533337 -0.042128574 0.98300004 9.459426e-39
-0.0046809525 -0.042128574 0.98300004 9.5512615e-39
-0.0028000001 -0.042000003 0.98000002 9.459426e-39
-0.00093333342 -0.042000003 0.98000002 9.4594274e-39
0.00093333342 -0.042000003 0.98000002 9.9232685e-39
0.0028000001 -0.042000003 0.98000002 1.0388243e-38
0.004666667 -0.042000003 0.98000002 9.9258931e-39
0.0065533337 -0.042128574 0.98300004 9.5584894e-39
0.0084257144 -0.042128574 0.98300004 9.4630036e-39
0.010319049 -0.042214289 0.98500007 9.4615925e-39
0.012195239 -0.042214289 0.98500007 9.3726506e-39
0.014071429 -0.042214289 0.98500007 9.1925782e-39
0.015947619 -0.042214289 0.98500007 9.1036224e-39
-0.091173336 -0.043081909 1.052 4.2341494e-39
-0.088830478 -0.042918097 1.0480001 4.3281611e-39
-0.086585723 -0.042795241 1.0450001 5.1557806e-39
-0.084595241 -0.042795241 1.0450001 5.9833469e-39
-0.082367621 -0.042672385 1.0420001 6.2591827e-39
-0.080151431 -0.042549528 1.039 6.5332528e-39
-0.07794667 -0.042426668 1.036 6.6225772e-39
-0.075753339 -0.042303812 1.033 6.7111757e-39
-0.073571436 -0.042180955 1.0300001 6.7090149e-39
-0.071331434 -0.042017147 1.026 6.706515e-39
-0.069377147 -0.042017147 1.026 6.8884021e-39
-0.067225717 -0.041894287 1.023 7.0717059e-39
-0.065085717 -0.041771431 1.0200001 7.1635316e-39
-0.063142858 -0.041771431 1.0200001 7.2553657e-39
-0.061020005 -0.041648574 1.0170001 7.2553643e-39
-0.059082862 -0.041648574 1.0170001 7.2553643e-39
-0.056977145 -0.041525718 1.0140001 7.3471998e-39
-0.054882862 -0.041402861 1.011 7.4390367e-39
-0.052957147 -0.041402861 1.011 7.8063801e-39
-0.050880004 -0.041280001 1.008 8.0822509e-39
-0.048960004 -0.041280001 1.008 8.2666464e-39
-0.046946671 -0.041198097 1.006 8.4521054e-39
-0.044896193 -0.041075241 1.003 8.4535362e-39
-0.042857144 -0.040952384 1 8.451381e-39
-0.040829528 -0.040829528 0.99700004 8.4495859e-39
-0.038813338 -0.040706668 0.99400002 8.4495901e-39
-0.036920004 -0.040706668 0.99400002 8.449237e-39
-0.03502667 -0.040706668 0.99400002 8.4492314e-39
-0.033133335 -0.040706668 0.99400002 8.5410627e-39
-0.031145716 -0.040583812 0.99100006 8.6328968e-39
-0.029169526 -0.040460955 0.98800004 8.7247323e-39
-0.027287621 -0.040460955 0.98800004 8.7247351e-39
-0.025328573 -0.040338099 0.98500007 9.0002444e-39
-0.023452383 -0.040338099 0.98500007 9.2757523e-39
-0.021576192 -0.040338099 0.98500007 9.1839182e-39
-0.019660002 -0.040256195 0.98300004 9.0920813e-39
-0.01778762 -0.040256195 0.98300004 9.0002444e-39
-0.015915239 -0.040256195 0.98300004 8.9084131e-39
-0.014042858 -0.040256195 0.98300004 8.4492398e-39
-0.012133334 -0.040133335 0.98000002 7.8982254e-39
-0.010266667 -0.040133335 0.98000002 8.4492356e-39
-0.0084000006 -0.040133335 0.98000002 9.0002458e-39
-0.0065333336 -0.040133335 0.98000002 9.0920799e-39
-0.004666667 -0.040133335 0.98000002 9.1839196e-39
-0.0028000001 -0.040133335 0.98000002 9.2757593e-39
-0.00093333342 -0.040133335 0.98000002 9.2782662e-39
0.00093333342 -0.040133335 0.98000002 1.0110523e-38
0.0028000001 -0.040133335 0.98000002 1.0844172e-38
0.004666667 -0.040133335 0.98000002 1.0474361e-38
0.0065333336 -0.040133335 0.98000002 1.0015501e-38
0.0084000006 -0.040133335 0.98000002 9.9225468e-39
0.010266667 -0.040133335 0.98000002 9.7381723e-39
0.012170477 -0.040256195 0.98300004 9.6459921e-39
0.014000001 -0.040133335 0.98000002 9.4659155e-39
0.015866667 -0.040133335 0.98000002 9.2844039e-39
0.017679049 -0.040010478 0.97700006 9.0124889e-39
0.019540001 -0.040010478 0.97700006 9.1068397e-39
-0.088576198 -0.040804766 1.0450001 2.4889513e-39
-0.086585723 -0.040804766 1.0450001 3.8697474e-39
-0.084595241 -0.040804766 1.0450001 5.3415816e-39
-0.082367621 -0.040687621 1.0420001 5.8003541e-39
-0.080151431 -0.040570479 1.039 6.3488517e-39
-0.07794667 -0.040453337 1.036 6.3463364e-39
-0.075753339 -0.040336192 1.033 6.3409554e-39
-0.073571436 -0.04021905 1.0300001 6.2480437e-39
-0.071609527 -0.04021905 1.0300001 6.2451753e-39
-0.069377147 -0.04006286 1.026 6.429205e-39
-0.067422859 -0.04006286 1.026 6.7043528e-39
-0.065277144 -0.039945718 1.023 6.8880223e-39
-0.063142858 -0.039828572 1.0200001 7.1635288e-39
-0.061020005 -0.039711431 1.0170001 7.0716933e-39
-0.059082862 -0.039711431 1.0170001 7.0716933e-39
-0.056977145 -0.039594289 1.0140001 7.1635288e-39
-0.054882862 -0.039477147 1.011 7.3472012e-39
-0.052957147 -0.039477147 1.011 7.7149019e-39
-0.050880004 -0.039360002 1.008 8.0826153e-39
-0.048960004 -0.039360002 1.008 8.176257e-39
-0.046946671 -0.039281908 1.006 8.3606329e-39
-0.044896193 -0.039164763 1.003 8.1765892e-39
-0.042985719 -0.039164763 1.003 7.9922007e-39
-0.040952384 -0.039047621 1 7.991842e-39
-0.038930479 -0.038930479 0.99700004 7.9907658e-39
-0.036920004 -0.038813338 0.99400002 8.0822425e-39
-0.03502667 -0.038813338 0.99400002 8.1737193e-39
-0.033033334 -0.038696192 0.99100006 8.3573903e-39
-0.031145716 -0.038696192 0.99100006 8.4492258e-39
-0.029169526 -0.03857905 0.98800004 8.6328968e-39
-0.027204763 -0.038461909 0.98500007 8.7247337e-39
-0.025328573 -0.038461909 0.98500007 9.0920757e-39
-0.023404764 -0.038383812 0.98300004 9.5512531e-39
-0.021532383 -0.038383812 0.98300004 9.3675807e-39
-0.019600002 -0.03826667 0.98000002 9.2757452e-39
-0.017733334 -0.03826667 0.98000002 9.0002388e-39
-0.015866667 -0.03826667 0.98000002 8.8165678e-39
-0.014000001 -0.03826667 0.98000002 8.4492258e-39
-0.012133334 -0.03826667 0.98000002 8.1737193e-39
-0.010235239 -0.038149524 0.97700006 8.5410613e-39
-0.0083742859 -0.038149524 0.97700006 8.9084033e-39
-0.0065133339 -0.038149524 0.97700006 8.7247323e-39
-0.0046523814 -0.038149524 0.97700006 8.6329052e-39
-0.0027914287 -0.038149524 0.97700006 8.817302e-39
-0.00093047624 -0.038149524 0.97700006 9.0942365e-39
0.00093047624 -0.038149524 0.97700006 9.6470347e-39
0.0027828573 -0.038032383 0.97400004 1.0198793e-38
0.0046380954 -0.038032383 0.97400004 1.0106627e-38
0.0064933337 -0.038032383 0.97400004 1.0105887e-38
0.0083485721 -0.038032383 0.97400004 1.0014388e-38
0.01020381 -0.038032383 0.97400004 1.0013676e-38
0.012059049 -0.038032383 0.97400004 9.8318029e-39
0.013885715 -0.037954289 0.97200006 9.6484934e-39
0.015737144 -0.037954289 0.97200006 9.1010706e-39
0.017588573 -0.037954289 0.97200006 8.644749e-39
0.019440001 -0.037954289 0.97200006 8.8294821e-39
0.021291429 -0.037954289 0.97200006 9.1064292e-39
0.023142859 -0.037954289 0.97200006 8.9256336e-39
-0.0848381 -0.038925719 1.0480001 4.6054403e-39
-0.082604766 -0.038814288 1.0450001 5.3433276e-39
-0.080151431 -0.03859143 1.039 6.0744215e-39
-0.078172386 -0.03859143 1.039 5.981507e-39
-0.075973339 -0.038480002 1.036 5.8846478e-39
-0.073785722 -0.038368575 1.033 5.8810605e-39
-0.071609527 -0.038257144 1.0300001 5.7877901e-39
-0.069647625 -0.038257144 1.0300001 6.0625805e-39
-0.067422859 -0.038108572 1.026 6.2455326e-39
-0.065277144 -0.037997145 1.023 6.6128746e-39
-0.063142858 -0.037885718 1.0200001 6.9798578e-39
-0.061020005 -0.037774287 1.0170001 6.8880223e-39
-0.059082862 -0.037774287 1.0170001 6.7961868e-39
-0.056977145 -0.03766286 1.0140001 7.0716933e-39
-0.054882862 -0.037551433 1.011 7.2553699e-39
-0.052957147 -0.037551433 1.011 7.6230749e-39
-0.050880004 -0.037440002 1.008 7.9918532e-39
-0.048960004 -0.037440002 1.008 8.1791143e-39
-0.046946671 -0.037365716 1.006 8.2687904e-39
-0.044896193 -0.037254289 1.003 7.8996477e-39
-0.042857144 -0.037142858 1 7.5330232e-39
-0.040829528 -0.037031431 0.99700004 7.5340994e-39
-0.038930479 -0.037031431 0.99700004 7.440829e-39
-0.036920004 -0.036920004 0.99400002 7.7149005e-39
-0.034920953 -0.036808573 0.99100006 7.8985715e-39
-0.033033334 -0.036808573 0.99100006 8.0818838e-39
-0.031145716 -0.036808573 0.99100006 8.265559e-39
-0.029080953 -0.036585718 0.98500007 8.5410697e-39
-0.027204763 -0.036585718 0.98500007 8.7247393e-39
-0.025277145 -0.036511432 0.98300004 9.2757523e-39
-0.023404764 -0.036511432 0.98300004 9.7392317e-39
-0.021466669 -0.036400001 0.98000002 9.5512517e-39
-0.019600002 -0.036400001 0.98000002 9.3675821e-39
-0.017733334 -0.036400001 0.98000002 9.000243e-39
-0.015866667 -0.036400001 0.98000002 8.6328982e-39
-0.013957144 -0.036288574 0.97700006 8.5410613e-39
-0.012096191 -0.036288574 0.97700006 8.4492258e-39
-0.010235239 -0.036288574 0.97700006 8.6328968e-39
-0.0083742859 -0.036288574 0.97700006 8.7247323e-39
-0.0065133339 -0.036288574 0.97700006 8.3573903e-39
-0.0046380954 -0.036177143 0.97400004 7.9900525e-39
-0.0027828573 -0.036177143 0.97400004 8.4492342e-39
-0.00092761911 -0.036177143 0.97400004 8.817651e-39
0.00092761911 -0.036177143 0.97400004 9.184993e-39
0.0027771431 -0.036102861 0.97200006 9.554151e-39
0.0046285717 -0.036102861 0.97200006 9.8307561e-39
0.0064600003 -0.03599143 0.96900004 1.0107325e-38
0.0083057145 -0.03599143 0.96900004 1.0198788e-38
0.010151429 -0.03599143 0.96900004 1.0199869e-38
0.011997144 -0.03599143 0.96900004 1.0019433e-38
0.013842858 -0.03599143 0.96900004 9.8357546e-39
0.015688572 -0.03599143 0.96900004 9.009947e-39
0.017534288 -0.03599143 0.96900004 8.1841379e-39
0.019380001 -0.03599143 0.96900004 8.6436672e-39
0.021225715 -0.03599143 0.96900004 9.0128098e-39
0.023071431 -0.03599143 0.96900004 8.8312982e-39
0.024994288 -0.036102861 0.97200006 8.5579735e-39
0.026845716 -0.036102861 0.97200006 8.8360206e-39
0.028608574 -0.03599143 0.96900004 9.0214698e-39
-0.08284191 -0.036929525 1.0480001 4.6036186e-39
-0.080151431 -0.036612384 1.039 5.2468244e-39
-0.078172386 -0.036612384 1.039 5.4294178e-39
-0.075973339 -0.036506668 1.036 5.6098602e-39
-0.073785722 -0.036400955 1.033 5.6066302e-39
-0.071818098 -0.036400955 1.033 5.6044778e-39
-0.069647625 -0.036295239 1.0300001 5.8792668e-39
-0.067422859 -0.036154289 1.026 6.0618616e-39
-0.065277144 -0.036048573 1.023 6.3373681e-39
-0.063142858 -0.03594286 1.0200001 6.7043514e-39
-0.061020005 -0.035837144 1.0170001 6.7043514e-39
-0.059082862 -0.035837144 1.0170001 6.7047101e-39
-0.056977145 -0.035731431 1.0140001 6.9798578e-39
-0.054882862 -0.035625715 1.011 7.2553741e-39
-0.052957147 -0.035625715 1.011 7.5319652e-39
-0.050880004 -0.035520002 1.008 7.8992988e-39
-0.04886286 -0.035449527 1.006 7.9007239e-39
-0.046946671 -0.035449527 1.006 7.9010827e-39
-0.044896193 -0.035343811 1.003 7.6245e-39
-0.042857144 -0.035238098 1 7.348276e-39
-0.040829528 -0.035132382 0.99700004 7.349711e-39
-0.038813338 -0.03502667 0.99400002 7.2578755e-39
-0.036920004 -0.03502667 0.99400002 7.6237825e-39
-0.034920953 -0.034920953 0.99100006 7.8985715e-39
-0.033033334 -0.034920953 0.99100006 8.2659135e-39
-0.031145716 -0.034920953 0.99100006 8.5410697e-39
-0.029080953 -0.034709524 0.98500007 9.0042002e-39
-0.027149526 -0.034639049 0.98300004 9.459789e-39
-0.025277145 -0.034639049 0.98300004 9.9282921e-39
-0.023333335 -0.034533337 0.98000002 1.0395356e-38
-0.021466669 -0.034533337 0.98000002 1.0112309e-38
-0.019600002 -0.034533337 0.98000002 9.8267624e-39
-0.017733334 -0.034533337 0.98000002 9.2757523e-39
-0.015866667 -0.034533337 0.98000002 8.7247365e-39
-0.013957144 -0.03442762 0.97700006 8.5410613e-39
-0.012096191 -0.03442762 0.97700006 8.3573903e-39
-0.010235239 -0.03442762 0.97700006 8.4492258e-39
-0.0083485721 -0.034321908 0.97400004 8.5410613e-39
-0.0064933337 -0.034321908 0.97400004 8.2655548e-39
-0.0046285717 -0.034251429 0.97200006 7.9900483e-39
-0.0027771431 -0.034251429 0.97200006 8.2684246e-39
-0.00092571432 -0.034251429 0.97200006 8.4506663e-39
0.00092571432 -0.034251429 0.97200006 8.5439423e-39
0.0027685717 -0.034145717 0.96900004 8.6347199e-39
0.0046142861 -0.034145717 0.96900004 9.0038723e-39
0.0064600003 -0.034145717 0.96900004 9.3755135e-39
0.0083057145 -0.034145717 0.96900004 9.6495794e-39
0.010120001 -0.034040004 0.96600002 1.0016568e-38
0.011960001 -0.034040004 0.96600002 1.0111638e-38
0.013800001 -0.034040004 0.96600002 1.0297447e-38
0.015640002 -0.034040004 0.96600002 9.6531486e-39
0.017480001 -0.034040004 0.96600002 9.0095826e-39
0.019320002 -0.034040004 0.96600002 9.1928949e-39
0.021160001 -0.034040004 0.96600002 9.2854562e-39
0.023071431 -0.034145717 0.96900004 9.1035859e-39
0.024917144 -0.034145717 0.96900004 8.8309815e-39
0.026845716 -0.034251429 0.97200006 8.9250016e-39
0.028608574 -0.034145717 0.96900004 9.0207566e-39
0.030454287 -0.034145717 0.96900004 8.9310454e-39
-0.080382861 -0.034733336 1.0420001 4.3256136e-39
-0.078398101 -0.034733336 1.0420001 4.8787818e-39
-0.07619334 -0.034633335 1.039 5.3347208e-39
-0.074000008 -0.034533337 1.036 5.4233179e-39
-0.07202667 -0.034533337 1.036 5.4215243e-39
-0.069850482 -0.034433335 1.033 5.6959546e-39
-0.067685716 -0.034333337 1.0300001 5.8785508e-39
-0.065277144 -0.034100004 1.023 6.1536985e-39
-0.063142858 -0.034000002 1.0200001 6.3370108e-39
-0.061020005 -0.033900004 1.0170001 6.4288449e-39
-0.059082862 -0.033900004 1.0170001 6.5206804e-39
-0.056977145 -0.033800002 1.0140001 6.8880223e-39
-0.054882862 -0.0337 1.011 7.1642533e-39
-0.052957147 -0.0337 1.011 7.5337547e-39
-0.050880004 -0.033600003 1.008 7.808192e-39
-0.04886286 -0.033533335 1.006 7.715646e-39
-0.046946671 -0.033533335 1.006 7.5323198e-39
-0.044896193 -0.033433337 1.003 7.348276e-39
-0.042857144 -0.033333335 1 7.1656812e-39
-0.040829528 -0.033233337 0.99700004 7.1663987e-39
-0.038813338 -0.033133335 0.99400002 7.073487e-39
-0.036920004 -0.033133335 0.99400002 7.5312296e-39
-0.034920953 -0.033033334 0.99100006 7.8985715e-39
-0.032933336 -0.032933336 0.98800004 8.3584665e-39
-0.031051431 -0.032933336 0.98800004 8.8248228e-39
-0.029021908 -0.03276667 0.98300004 9.4748501e-39
-0.027149526 -0.03276667 0.98300004 1.0115908e-38
-0.025277145 -0.03276667 0.98300004 1.0582264e-38
-0.023333335 -0.032666668 0.98000002 1.1042511e-38
-0.021466669 -0.032666668 0.98000002 1.0676238e-38
-0.019600002 -0.032666668 0.98000002 1.0298145e-38
-0.017733334 -0.032666668 0.98000002 9.5512742e-39
-0.015818097 -0.03256667 0.97700006 8.7247449e-39
-0.013957144 -0.03256667 0.97700006 8.5410627e-39
-0.012059049 -0.032466669 0.97400004 8.2655562e-39
-0.01020381 -0.032466669 0.97400004 8.2655548e-39
-0.0083314292 -0.032400001 0.97200006 8.2655576e-39
-0.0064800004 -0.032400001 0.97200006 8.1737249e-39
-0.0046142861 -0.032300003 0.96900004 7.9925692e-39
-0.0027771431 -0.032400001 0.97200006 8.092301e-39
-0.0009228572 -0.032300003 0.96900004 8.092657e-39
0.0009228572 -0.032300003 0.96900004 7.9057546e-39
0.0027685717 -0.032300003 0.96900004 7.6270321e-39
0.0046142861 -0.032300003 0.96900004 8.0829936e-39
0.0064600003 -0.032300003 0.96900004 8.5468262e-39
0.0083057145 -0.032300003 0.96900004 9.1911026e-39
0.010120001 -0.032200001 0.96600002 9.8347008e-39
0.011960001 -0.032200001 0.96600002 1.029642e-38
0.013800001 -0.032200001 0.96600002 1.066338e-38
0.015640002 -0.032200001 0.96600002 1.0295298e-38
0.017425716 -0.032100003 0.96300006 9.8343238e-39
0.01926 -0.032100003 0.96300006 9.7403345e-39
0.021094287 -0.032100003 0.96300006 9.558453e-39
0.023000002 -0.032200001 0.96600002 9.3740603e-39
0.024840001 -0.032200001 0.96600002 9.1017951e-39
0.026762858 -0.032300003 0.96900004 9.012126e-39
0.028608574 -0.032300003 0.96900004 8.9242225e-39
0.030454287 -0.032300003 0.96900004 8.9303084e-39
0.032300003 -0.032300003 0.96900004 8.8395533e-39
-0.078398101 -0.032748573 1.0420001 4.3241983e-39
-0.07619334 -0.032654289 1.039 4.6000453e-39
-0.074214287 -0.032654289 1.039 4.7808282e-39
-0.07202667 -0.032560002 1.036 5.0538235e-39
-0.069850482 -0.032465715 1.033 5.3286126e-39
-0.067685716 -0.032371432 1.0300001 5.6941623e-39
-0.065277144 -0.032151431 1.023 5.7863579e-39
-0.063142858 -0.032057144 1.0200001 5.9696688e-39
-0.061020005 -0.03196286 1.0170001 6.1533384e-39
-0.059082862 -0.03196286 1.0170001 6.4288449e-39
-0.056977145 -0.031868573 1.0140001 6.7961868e-39
-0.054882862 -0.031774286 1.011 7.163533e-39
-0.052957147 -0.031774286 1.011 7.3490019e-39
-0.050880004 -0.031680003 1.008 7.5326967e-39
-0.04886286 -0.031617146 1.006 6.9809901e-39
-0.046946671 -0.031617146 1.006 6.4299491e-39
-0.044896193 -0.031522859 1.003 6.7065037e-39
-0.042857144 -0.031428572 1 6.8908922e-39
-0.040829528 -0.031334288 0.99700004 6.9816515e-39
-0.038813338 -0.031240001 0.99400002 7.0724108e-39
-0.036920004 -0.031240001 0.99400002 7.5312296e-39
-0.034920953 -0.031145716 0.99100006 8.0818838e-39
-0.032933336 -0.031051431 0.98800004 8.6411476e-39
-0.031051431 -0.031051431 0.98800004 9.2918896e-39
-0.029021908 -0.030894287 0.98300004 9.7521433e-39
-0.027066668 -0.030800002 0.98000002 1.0303882e-38
-0.025200002 -0.030800002 0.98000002 1.0859924e-38
-0.023333335 -0.030800002 0.98000002 1.1505277e-38
-0.021466669 -0.030800002 0.98000002 1.1137928e-38
-0.019540001 -0.030705716 0.97700006 1.0863157e-38
-0.017679049 -0.030705716 0.97700006 9.6531696e-39
-0.015818097 -0.030705716 0.97700006 8.4492468e-39
-0.013914287 -0.030611431 0.97400004 8.4492286e-39
-0.012059049 -0.030611431 0.97400004 8.5410627e-39
-0.010182858 -0.030548573 0.97200006 8.5410613e-39
-0.0083314292 -0.030548573 0.97200006 8.6329024e-39
-0.0064800004 -0.030548573 0.97200006 8.265566e-39
-0.0046142861 -0.030454287 0.96900004 7.8063969e-39
-0.0027685717 -0.030454287 0.96900004 7.7231794e-39
-0.0009228572 -0.030454287 0.96900004 7.5542052e-39
0.0009228572 -0.030454287 0.96900004 8.5597196e-39
0.0027685717 -0.030454287 0.96900004 9.558439e-39
0.0046142861 -0.030454287 0.96900004 8.7315678e-39
0.0064400006 -0.030360002 0.96600002 7.9046812e-39
0.0082800006 -0.030360002 0.96600002 8.5464437e-39
0.010120001 -0.030360002 0.96600002 9.1918607e-39
0.011960001 -0.030360002 0.96600002 9.7436486e-39
0.013757144 -0.030265717 0.96300006 1.0294988e-38
0.01559143 -0.030265717 0.96300006 1.0202403e-38
0.017425716 -0.030265717 0.96300006 1.0016575e-38
0.01926 -0.030265717 0.96300006 9.9247356e-39
0.021094287 -0.030265717 0.96300006 9.7414079e-39
0.022928573 -0.030265717 0.96300006 9.5580789e-39
0.024840001 -0.030360002 0.96600002 9.3740435e-39
0.026680002 -0.030360002 0.96600002 9.1921606e-39
0.028520001 -0.030360002 0.96600002 9.0088497e-39
0.030360002 -0.030360002 0.96600002 8.9234714e-39
0.032200001 -0.030360002 0.96600002 8.9274329e-39
-0.07619334 -0.03067524 1.039 3.8632033e-39
-0.074214287 -0.03067524 1.039 4.2301753e-39
-0.07202667 -0.030586669 1.036 4.5960824e-39
-0.069850482 -0.030498097 1.033 5.0541851e-39
-0.067685716 -0.030409526 1.0300001 5.5119318e-39
-0.065277144 -0.03020286 1.023 5.5108598e-39
-0.063142858 -0.030114288 1.0200001 5.5108542e-39
-0.061020005 -0.030025717 1.0170001 5.9696674e-39
-0.059082862 -0.030025717 1.0170001 6.3370094e-39
-0.056977145 -0.029937144 1.0140001 6.7043514e-39
-0.054882862 -0.029848574 1.011 7.0727723e-39
-0.052957147 -0.029848574 1.011 7.1664043e-39
-0.050880004 -0.029760001 1.008 7.1653393e-39
-0.04886286 -0.029700954 1.006 6.2459194e-39
-0.046946671 -0.029700954 1.006 5.3279091e-39
-0.044896193 -0.029612383 1.003 5.9725372e-39
-0.042857144 -0.029523812 1 6.6143095e-39
-0.040829528 -0.02943524 0.99700004 6.8890985e-39
-0.038813338 -0.029346669 0.99400002 7.0720521e-39
-0.036920004 -0.029346669 0.99400002 7.6227077e-39
-0.034920953 -0.029258097 0.99100006 8.1780241e-39
-0.033033334 -0.029258097 0.99100006 8.9241875e-39
-0.031051431 -0.029169526 0.98800004 9.6599519e-39
-0.029021908 -0.029021908 0.98300004 1.0121285e-38
-0.027066668 -0.028933335 0.98000002 1.0492221e-38
-0.025200002 -0.028933335 0.98000002 1.1231933e-38
-0.023333335 -0.028933335 0.98000002 1.1874414e-38
-0.021466669 -0.028933335 0.98000002 1.1691093e-38
-0.019540001 -0.028844764 0.97700006 1.1412732e-38
-0.017679049 -0.028844764 0.97700006 9.7482295e-39
-0.015818097 -0.028844764 0.97700006 8.0851292e-39
-0.013914287 -0.028756192 0.97400004 8.4492272e-39
-0.012034287 -0.028697144 0.97200006 8.7247337e-39
-0.010182858 -0.028697144 0.97200006 8.908762e-39
-0.0083057145 -0.028608574 0.96900004 9.0002416e-39
-0.0064600003 -0.028608574 0.96900004 8.3573959e-39
-0.0046142861 -0.028608574 0.96900004 7.6230749e-39
-0.0027685717 -0.028608574 0.96900004 7.3472138e-39
-0.0009228572 -0.028608574 0.96900004 6.994933e-39
0.0009228572 -0.028608574 0.96900004 9.2201445e-39
0.0027685717 -0.028608574 0.96900004 1.1410214e-38
0.0046142861 -0.028608574 0.96900004 9.2886792e-39
0.0064400006 -0.028520001 0.96600002 7.172507e-39
0.0082800006 -0.028520001 0.96600002 7.8063787e-39
0.010120001 -0.028520001 0.96600002 8.4535628e-39
0.011922858 -0.02843143 0.96300006 9.1904314e-39
0.013757144 -0.02843143 0.96300006 9.9261803e-39
0.015559048 -0.028372383 0.96100003 1.0110199e-38
0.017389525 -0.028372383 0.96100003 1.020169e-38
0.019220002 -0.028372383 0.96100003 1.0108435e-38
0.021050477 -0.028372383 0.96100003 9.9261747e-39
0.022880955 -0.028372383 0.96100003 9.8339567e-39
0.02471143 -0.028372383 0.96100003 9.64992e-39
0.026541907 -0.028372383 0.96100003 9.3733303e-39
0.02843143 -0.02843143 0.96300006 9.0077833e-39
0.030265717 -0.02843143 0.96300006 9.0110147e-39
0.032100003 -0.02843143 0.96300006 9.0139e-39
0.033934288 -0.02843143 0.96300006 9.0167853e-39
0.035768572 -0.02843143 0.96300006 8.9271078e-39
-0.074214287 -0.028696192 1.039 3.3107442e-39
-0.07202667 -0.028613335 1.036 4.229818e-39
-0.069850482 -0.028530478 1.033 5.0545452e-39
-0.067685716 -0.028447621 1.0300001 5.9721911e-39
-0.065277144 -0.028254287 1.023 5.7874509e-39
-0.063142858 -0.028171431 1.0200001 5.6030527e-39
-0.061020005 -0.028088573 1.0170001 5.8781906e-39
-0.059082862 -0.028088573 1.0170001 6.1536971e-39
-0.056977145 -0.028005715 1.0140001 6.6128746e-39
-0.054882862 -0.027922859 1.011 7.0724122e-39
-0.052957147 -0.027922859 1.011 7.1656826e-39
-0.050880004 -0.027840002 1.008 7.2575181e-39
-0.04886286 -0.027784763 1.006 6.7054276e-39
-0.046806671 -0.027701907 1.003 6.1533384e-39
-0.044761907 -0.027619049 1 6.5213978e-39
-0.042857144 -0.027619049 1 6.7961868e-39
-0.040829528 -0.027536193 0.99700004 6.9802166e-39
-0.038813338 -0.027453335 0.99400002 7.2553657e-39
-0.036920004 -0.027453335 0.99400002 7.7152607e-39
-0.034920953 -0.027370477 0.99100006 8.1747969e-39
-0.032933336 -0.027287621 0.98800004 8.9198827e-39
-0.030957146 -0.027204763 0.98500007 9.6595959e-39
-0.028933335 -0.027066668 0.98000002 1.0031966e-38
-0.027066668 -0.027066668 0.98000002 1.0495454e-38
-0.025200002 -0.027066668 0.98000002 1.086567e-38
-0.023261907 -0.026983811 0.97700006 1.1323761e-38
-0.021400955 -0.026983811 0.97700006 1.1325545e-38
-0.019540001 -0.026983811 0.97700006 1.1327351e-38
-0.017679049 -0.026983811 0.97700006 9.5627592e-39
-0.015769524 -0.026900955 0.97400004 7.8063913e-39
-0.013885715 -0.026845716 0.97200006 8.1737193e-39
-0.012034287 -0.026845716 0.97200006 8.6328968e-39
-0.010151429 -0.026762858 0.96900004 8.5410613e-39
-0.0083057145 -0.026762858 0.96900004 8.4492258e-39
-0.0064600003 -0.026762858 0.96900004 7.8985715e-39
-0.0046142861 -0.026762858 0.96900004 7.3486348e-39
-0.0027685717 -0.026762858 0.96900004 6.2455326e-39
-0.0009228572 -0.026762858 0.96900004 5.0513138e-39
0.00092000008 -0.026680002 0.96600002 8.193451e-39
0.0027600003 -0.026680002 0.96600002 1.1236586e-38
0.0046000001 -0.026680002 0.96600002 1.0217077e-38
0.0064400006 -0.026680002 0.96600002 9.1089445e-39
0.0082542859 -0.026597144 0.96300006 8.1841225e-39
0.010088572 -0.026597144 0.96300006 7.2578825e-39
0.011898096 -0.026541907 0.96100003 8.2695135e-39
0.013728572 -0.026541907 0.96100003 9.1903894e-39
0.015559048 -0.026541907 0.96100003 9.7424883e-39
0.01733524 -0.026459049 0.95800006 1.0295329e-38
0.019160001 -0.026459049 0.95800006 1.0295002e-38
0.020984763 -0.026459049 0.95800006 1.0296047e-38
0.022809526 -0.026459049 0.95800006 1.0110192e-38
0.024634287 -0.026459049 0.95800006 9.9261537e-39
0.026459049 -0.026459049 0.95800006 9.6488452e-39
0.028283812 -0.026459049 0.95800006 9.3722667e-39
0.03020286 -0.026541907 0.96100003 9.2822291e-39
0.032033335 -0.026541907 0.96100003 9.1000084e-39
0.033863813 -0.026541907 0.96100003 9.1021762e-39
0.035694286 -0.026541907 0.96100003 9.0139322e-39
-0.071818098 -0.026562858 1.033 3.860681e-39
-0.069850482 -0.026562858 1.033 5.1460206e-39
-0.067685716 -0.026485717 1.0300001 6.3391674e-39
-0.065277144 -0.026305716 1.023 5.9711121e-39
-0.063142858 -0.026228573 1.0200001 5.6034072e-39
-0.061020005 -0.02615143 1.0170001 5.7867139e-39
-0.059082862 -0.02615143 1.0170001 5.9703848e-39
-0.056977145 -0.026074287 1.0140001 6.5213978e-39
-0.054882862 -0.025997145 1.011 6.9812998e-39
-0.052800003 -0.025920002 1.008 7.16677e-39
-0.050880004 -0.025920002 1.008 7.3493592e-39
-0.04886286 -0.025868572 1.006 7.1642463e-39
-0.046806671 -0.025791431 1.003 6.9802166e-39
-0.044761907 -0.025714288 1 6.9802166e-39
-0.042728573 -0.025637144 0.99700004 6.9798578e-39
-0.040829528 -0.025637144 0.99700004 7.1635288e-39
-0.038813338 -0.025560001 0.99400002 7.3479173e-39
-0.036920004 -0.025560001 0.99400002 7.8078136e-39
-0.034920953 -0.025482859 0.99100006 8.1791003e-39
-0.032933336 -0.025405716 0.98800004 8.9202414e-39
-0.030957146 -0.025328573 0.98500007 9.5695513e-39
-0.028933335 -0.025200002 0.98000002 1.003519e-38
-0.027066668 -0.025200002 0.98000002 1.0498699e-38
-0.025200002 -0.025200002 0.98000002 1.0594509e-38
-0.023261907 -0.025122859 0.97700006 1.0684878e-38
-0.021400955 -0.025122859 0.97700006 1.0959638e-38
-0.019540001 -0.025122859 0.97700006 1.1223692e-38
-0.017624764 -0.025045715 0.97400004 9.3687116e-39
-0.015769524 -0.025045715 0.97400004 7.5312576e-39
-0.013885715 -0.024994288 0.97200006 7.9900483e-39
-0.011997144 -0.024917144 0.96900004 8.4492272e-39
-0.010151429 -0.024917144 0.96900004 8.1737207e-39
-0.0082800006 -0.024840001 0.96600002 7.8982142e-39
-0.0064400006 -0.024840001 0.96600002 7.5312296e-39
-0.0046000001 -0.024840001 0.96600002 7.0727835e-39
-0.0027600003 -0.024840001 0.96600002 5.1431745e-39
-0.00092000008 -0.024840001 0.96600002 3.1252921e-39
0.00092000008 -0.024840001 0.96600002 7.082098e-39
0.0027600003 -0.024840001 0.96600002 1.1046095e-38
0.0045857145 -0.02476286 0.96300006 1.1050763e-38
0.0064200005 -0.02476286 0.96300006 1.1044302e-38
0.008237143 -0.02471143 0.96100003 8.5629454e-39
0.010067619 -0.02471143 0.96100003 6.0712013e-39
0.011898096 -0.02471143 0.96100003 7.2553882e-39
0.013685715 -0.024634287 0.95800006 8.452474e-39
0.015510477 -0.024634287 0.95800006 9.3733373e-39
0.01733524 -0.024634287 0.95800006 1.0293864e-38
0.019160001 -0.024634287 0.95800006 1.047935e-38
0.020984763 -0.024634287 0.95800006 1.0661935e-38
0.022809526 -0.024634287 0.95800006 1.0384984e-38
0.024634287 -0.024634287 0.95800006 1.0108756e-38
0.026459049 -0.024634287 0.95800006 9.923644e-39
0.028283812 -0.024634287 0.95800006 9.7392555e-39
0.030108573 -0.024634287 0.95800006 9.4623141e-39
0.031933334 -0.024634287 0.95800006 9.1878936e-39
0.033758096 -0.024634287 0.95800006 9.1853937e-39
0.035694286 -0.02471143 0.96100003 9.0993064e-39
0.037524763 -0.02471143 0.96100003 9.1011098e-39
0.039355241 -0.02471143 0.96100003 9.1079271e-39
-0.069647625 -0.024523811 1.0300001 4.2265866e-39
-0.067685716 -0.024523811 1.0300001 5.2360596e-39
-0.065468572 -0.024428573 1.026 5.2367771e-39
-0.063142858 -0.024285715 1.0200001 5.1438654e-39
-0.061020005 -0.024214288 1.0170001 5.5115661e-39
-0.059082862 -0.024214288 1.0170001 5.8785494e-39
-0.056977145 -0.02414286 1.0140001 6.2462501e-39
-0.055045716 -0.02414286 1.0140001 6.6139634e-39
-0.052957147 -0.024071431 1.011 6.7983631e-39
-0.050880004 -0.024000002 1.008 6.9820228e-39
-0.04886286 -0.023952382 1.006 6.980934e-39
-0.046806671 -0.023880955 1.003 7.0720521e-39
-0.044896193 -0.023880955 1.003 6.8883811e-39
-0.042857144 -0.023809526 1 6.7961868e-39
-0.040829528 -0.023738097 0.99700004 6.9802166e-39
-0.038813338 -0.023666669 0.99400002 7.1642463e-39
-0.036920004 -0.023666669 0.99400002 7.7174117e-39
-0.034815241 -0.023523811 0.98800004 8.1808939e-39
-0.032933336 -0.023523811 0.98800004 8.92347e-39
-0.030957146 -0.023452383 0.98500007 9.6628203e-39
-0.028933335 -0.023333335 0.98000002 9.9458616e-39
-0.027066668 -0.023333335 0.98000002 1.0226081e-38
-0.025122859 -0.023261907 0.97700006 1.0041382e-38
-0.023261907 -0.023261907 0.97700006 9.8608911e-39
-0.021400955 -0.023261907 0.97700006 9.848285e-39
-0.019480001 -0.023190478 0.97400004 9.7493141e-39
-0.017624764 -0.023190478 0.97400004 9.0074947e-39
-0.015737144 -0.023142859 0.97200006 8.1737599e-39
-0.013842858 -0.023071431 0.96900004 8.357749e-39
-0.011997144 -0.023071431 0.96900004 8.4495859e-39
-0.010151429 -0.023071431 0.96900004 8.0818866e-39
-0.0082800006 -0.023000002 0.96600002 7.7145432e-39
-0.0064400006 -0.023000002 0.96600002 7.531947e-39
-0.0046000001 -0.023000002 0.96600002 7.3500963e-39
-0.0027600003 -0.023000002 0.96600002 6.5289845e-39
-0.00092000008 -0.023000002 0.96600002 5.7860244e-39
0.00092000008 -0.023000002 0.96600002 8.0065514e-39
0.0027600003 -0.023000002 0.96600002 1.0223159e-38
0.0045857145 -0.022928573 0.96300006 9.9462161e-39
0.0064066672 -0.022880955 0.96100003 9.7603941e-39
0.008237143 -0.022880955 0.96100003 9.0228417e-39
0.010067619 -0.022880955 0.96100003 8.3713991e-39
0.011860953 -0.022809526 0.95800006 8.5446822e-39
0.013685715 -0.022809526 0.95800006 8.8165846e-39
0.015510477 -0.022809526 0.95800006 9.4633623e-39
0.01733524 -0.022809526 0.95800006 1.0108372e-38
0.019160001 -0.022809526 0.95800006 1.0385321e-38
0.020984763 -0.022809526 0.95800006 1.0752317e-38
0.022809526 -0.022809526 0.95800006 1.0384269e-38
0.024634287 -0.022809526 0.95800006 1.0108402e-38
0.026459049 -0.022809526 0.95800006 1.0108042e-38
0.028283812 -0.022809526 0.95800006 1.0015485e-38
0.030108573 -0.022809526 0.95800006 9.64742e-39
0.031933334 -0.022809526 0.95800006 9.3712031e-39
0.033758096 -0.022809526 0.95800006 9.187179e-39
0.035582859 -0.022809526 0.95800006 9.0049569e-39
0.037407622 -0.022809526 0.95800006 9.1011098e-39
0.039232384 -0.022809526 0.95800006 9.2894457e-39
0.041185718 -0.022880955 0.96100003 9.2022738e-39
-0.065468572 -0.022474287 1.026 4.4117108e-39
-0.063142858 -0.022342859 1.0200001 4.6857725e-39
-0.061020005 -0.022277145 1.0170001 5.2367771e-39
-0.059082862 -0.022277145 1.0170001 5.7874313e-39
-0.056977145 -0.022211431 1.0140001 5.9711023e-39
-0.055045716 -0.022211431 1.0140001 6.155139e-39
-0.052957147 -0.022145716 1.011 6.3391744e-39
-0.050880004 -0.022080002 1.008 6.5228398e-39
-0.04886286 -0.022036191 1.006 6.7972644e-39
-0.046946671 -0.022036191 1.006 7.0724122e-39
-0.044896193 -0.021970477 1.003 6.7965456e-39
-0.042857144 -0.021904763 1 6.5206804e-39
-0.040829528 -0.021839049 0.99700004 6.7961868e-39
-0.038813338 -0.021773335 0.99400002 6.9805753e-39
-0.036920004 -0.021773335 0.99400002 7.6248587e-39
-0.034815241 -0.021641906 0.98800004 8.1823289e-39
-0.032933336 -0.021641906 0.98800004 9.021404e-39
-0.030957146 -0.021576192 0.98500007 9.7586019e-39
-0.028933335 -0.021466669 0.98000002 9.8590483e-39
-0.026983811 -0.021400955 0.97700006 9.8558436e-39
-0.025122859 -0.021400955 0.97700006 9.4842206e-39
-0.023261907 -0.021400955 0.97700006 9.0171412e-39
-0.021335239 -0.021335239 0.97400004 8.6401037e-39
-0.019480001 -0.021335239 0.97400004 8.2767456e-39
-0.017624764 -0.021335239 0.97400004 8.554801e-39
-0.015737144 -0.021291429 0.97200006 8.8245131e-39
-0.013842858 -0.021225715 0.96900004 8.6332555e-39
-0.011997144 -0.021225715 0.96900004 8.4495859e-39
-0.010120001 -0.021160001 0.96600002 7.9900497e-39
-0.0082800006 -0.021160001 0.96600002 7.5319484e-39
-0.0064400006 -0.021160001 0.96600002 7.5312296e-39
-0.0046000001 -0.021160001 0.96600002 7.5402119e-39
-0.0027600003 -0.021160001 0.96600002 8.0198525e-39
-0.00092000008 -0.021160001 0.96600002 8.3792898e-39
0.00092000008 -0.021160001 0.96600002 8.9353124e-39
0.0027600003 -0.021160001 0.96600002 9.3952228e-39
0.0045857145 -0.021094287 0.96300006 8.9346272e-39
0.0064066672 -0.021050477 0.96100003 8.3839561e-39
0.008237143 -0.021050477 0.96100003 9.4884764e-39
0.010067619 -0.021050477 0.96100003 1.0579759e-38
0.011860953 -0.020984763 0.95800006 9.8271576e-39
0.013685715 -0.020984763 0.95800006 9.0931715e-39
0.015461906 -0.020919049 0.95500004 9.463005e-39
0.017280953 -0.020919049 0.95500004 9.8332252e-39
0.019100001 -0.020919049 0.95500004 1.0293129e-38
0.020919049 -0.020919049 0.95500004 1.0751597e-38
0.022738097 -0.020919049 0.95500004 1.0474305e-38
0.024557145 -0.020919049 0.95500004 1.0108042e-38
0.026376192 -0.020919049 0.95500004 1.0200957e-38
0.02819524 -0.020919049 0.95500004 1.0292428e-38
0.030014288 -0.020919049 0.95500004 9.923644e-39
0.031833336 -0.020919049 0.95500004 9.4637463e-39
0.033652384 -0.020919049 0.95500004 9.186802e-39
0.035471432 -0.020919049 0.95500004 8.8212705e-39
0.03729048 -0.020919049 0.95500004 9.100021e-39
0.039109528 -0.020919049 0.95500004 9.378396e-39
0.041057147 -0.020984763 0.95800006 9.1979522e-39
0.042881906 -0.020984763 0.95800006 8.9271134e-39
0.044706669 -0.020984763 0.95800006 8.7473913e-39
-0.063142858 -0.020400001 1.0200001 4.2262461e-39
-0.061020005 -0.020340001 1.0170001 4.6857641e-39
-0.059082862 -0.020340001 1.0170001 5.1449416e-39
-0.056977145 -0.020280002 1.0140001 5.5126423e-39
-0.055045716 -0.020280002 1.0140001 5.7881502e-39
-0.052957147 -0.020220002 1.011 5.9725386e-39
-0.050880004 -0.020160001 1.008 6.2476878e-39
-0.048960004 -0.020160001 1.008 6.4310001e-39
-0.046946671 -0.02012 1.006 6.6132347e-39
-0.044896193 -0.020060001 1.003 6.5210391e-39
-0.042857144 -0.020000001 1 6.5206804e-39
-0.040829528 -0.019940002 0.99700004 6.6125159e-39
-0.038813338 -0.019880001 0.99400002 6.7043514e-39
-0.036920004 -0.019880001 0.99400002 7.257158e-39
-0.034815241 -0.019760001 0.98800004 7.9014414e-39
-0.032833334 -0.019700002 0.98500007 8.2802628e-39
-0.030957146 -0.019700002 0.98500007 8.7455416e-39
-0.028933335 -0.019600002 0.98000002 8.8370197e-39
-0.026983811 -0.019540001 0.97700006 8.935311e-39
-0.025122859 -0.019540001 0.97700006 8.6461699e-39
-0.023261907 -0.019540001 0.97700006 8.4506915e-39
-0.021335239 -0.019480001 0.97400004 8.5486563e-39
-0.019440001 -0.019440001 0.97200006 8.5508451e-39
-0.017588573 -0.019440001 0.97200006 8.7392147e-39
-0.015737144 -0.019440001 0.97200006 8.8342129e-39
-0.013842858 -0.019380001 0.96900004 8.454248e-39
-0.011960001 -0.019320002 0.96600002 8.174078e-39
-0.010120001 -0.019320002 0.96600002 7.164605e-39
-0.0082800006 -0.019320002 0.96600002 6.156567e-39
-0.0064400006 -0.019320002 0.96600002 6.523909e-39
-0.0045857145 -0.01926 0.96300006 6.8923299e-39
-0.0027514289 -0.01926 0.96300006 7.5488116e-39
-0.0009171429 -0.01926 0.96300006 8.2960526e-39
0.00092000008 -0.019320002 0.96600002 8.7541539e-39
0.0027514289 -0.01926 0.96300006 9.3034069e-39
0.0045761908 -0.019220002 0.96100003 9.1179759e-39
0.006386667 -0.019160001 0.95800006 8.9335524e-39
0.0082114292 -0.019160001 0.95800006 8.8420406e-39
0.010036191 -0.019160001 0.95800006 8.8463678e-39
0.011860953 -0.019160001 0.95800006 9.1918481e-39
0.013642858 -0.019100001 0.95500004 9.6431111e-39
0.015461906 -0.019100001 0.95500004 9.6463172e-39
0.017244764 -0.019060001 0.95300007 9.7439008e-39
0.019060001 -0.019060001 0.95300007 1.0202369e-38
0.02087524 -0.019060001 0.95300007 1.0660476e-38
0.022690477 -0.019060001 0.95300007 1.0383898e-38
0.024505716 -0.019060001 0.95300007 1.0108041e-38
0.026320955 -0.019060001 0.95300007 1.0384989e-38
0.028136192 -0.019060001 0.95300007 1.0662282e-38
0.029951431 -0.019060001 0.95300007 1.0200944e-38
0.031766668 -0.019060001 0.95300007 9.7406793e-39
0.033581909 -0.019060001 0.95300007 9.464084e-39
0.035471432 -0.019100001 0.95500004 9.2793564e-39
0.03729048 -0.019100001 0.95500004 9.3737212e-39
0.039109528 -0.019100001 0.95500004 9.5591831e-39
0.040928572 -0.019100001 0.95500004 9.3776603e-39
0.04274762 -0.019100001 0.95500004 9.1046621e-39
0.044566669 -0.019100001 0.95500004 8.9260092e-39
0.046531431 -0.019160001 0.95800006 8.7509394e-39
-0.062957145 -0.018402858 1.0170001 3.6752261e-39
-0.061020005 -0.018402858 1.0170001 4.1351099e-39
-0.059082862 -0.018402858 1.0170001 4.5028106e-39
-0.056977145 -0.018348573 1.0140001 4.9630643e-39
-0.055045716 -0.018348573 1.0140001 5.4215243e-39
-0.052957147 -0.018294288 1.011 5.6984671e-39
