# .PCD v0.7 - Point Cloud Data file format
VERSION 0.7
FIELDS x y z rgb
SIZE 4 4 4 4
TYPE F F F F
COUNT 1 1 1 1
WIDTH 950
HEIGHT 1
VIEWPOINT 0 0 0 1 0 0 0
POINTS 950
DATA ascii
-0.038930479 -0.050324764 0.99700004 1.0289894e-38
-0.037031431 -0.050324764 0.99700004 1.0473937e-38
-0.035132382 -0.050324764 0.99700004 1.0749827e-38
-0.033233337 -0.050324764 0.99700004 1.029211e-38
-0.031334288 -0.050324764 0.99700004 9.9261775e-39
-0.02943524 -0.050324764 0.99700004 9.5562992e-39
-0.027536193 -0.050324764 0.99700004 9.1850112e-39
-0.025714288 -0.050476193 1 8.8169503e-39
-0.023809526 -0.050476193 1 8.4492384e-39
-0.021970477 -0.050627623 1.003 8.3573903e-39
-0.020060001 -0.050627623 1.003 8.1740794e-39
-0.01820381 -0.050779052 1.006 8.3599028e-39
-0.016320001 -0.050880004 1.008 8.4549669e-39
-0.014442858 -0.051031433 1.011 7.9961468e-39
-0.012628572 -0.051485717 1.0200001 7.4462128e-39
-0.010685715 -0.051485717 1.0200001 7.1714266e-39
-0.0087685715 -0.051637147 1.023 6.8977193e-39
-0.078454293 -0.049397144 1.0170001 7.1678448e-39
-0.076291434 -0.049251433 1.0140001 7.0742045e-39
-0.074360006 -0.049251433 1.0140001 6.9812928e-39
-0.072428577 -0.049251433 1.0140001 7.2557231e-39
-0.070288576 -0.049105719 1.011 7.4394011e-39
-0.068024769 -0.04886286 1.006 8.174092e-39
-0.065911435 -0.048717145 1.003 8.8183782e-39
-0.064000957 -0.048717145 1.003 9.2789921e-39
-0.061904766 -0.04857143 1 9.6485117e-39
-0.060000002 -0.04857143 1 9.7407297e-39
-0.057920955 -0.048425719 0.99700004 9.8325456e-39
-0.055853337 -0.048280004 0.99400002 9.6484976e-39
-0.053960003 -0.048280004 0.99400002 9.3737212e-39
-0.052066669 -0.048280004 0.99400002 1.0292089e-38
-0.050173335 -0.048280004 0.99400002 1.1118594e-38
-0.048280004 -0.048280004 0.99400002 1.0290626e-38
-0.04638667 -0.048280004 0.99400002 9.464821e-39
-0.044493336 -0.048280004 0.99400002 9.7414009e-39
-0.042600002 -0.048280004 0.99400002 1.0015124e-38
-0.040706668 -0.048280004 0.99400002 1.0107686e-38
-0.038813338 -0.048280004 0.99400002 1.0199874e-38
-0.036920004 -0.048280004 0.99400002 1.0291701e-38
-0.03502667 -0.048280004 0.99400002 1.0383557e-38
-0.033133335 -0.048280004 0.99400002 1.0108788e-38
-0.031240001 -0.048280004 0.99400002 9.8343336e-39
-0.029346669 -0.048280004 0.99400002 9.5580859e-39
-0.027453335 -0.048280004 0.99400002 9.2782732e-39
-0.025637144 -0.048425719 0.99700004 8.8165832e-39
-0.023809526 -0.04857143 1 8.2655618e-39
-0.021904763 -0.04857143 1 8.1737193e-39
-0.020060001 -0.048717145 1.003 8.0822481e-39
-0.018149525 -0.048717145 1.003 8.54179e-39
-0.016287619 -0.04886286 1.006 8.9145101e-39
-0.014400001 -0.048960004 1.008 8.3670817e-39
-0.012591429 -0.049397144 1.0170001 7.7238843e-39
-0.010685715 -0.049542859 1.0200001 7.1736e-39
-0.0087685715 -0.049688574 1.023 6.5339731e-39
-0.078222863 -0.047320005 1.0140001 7.351876e-39
-0.076065719 -0.047180004 1.011 6.9830864e-39
-0.073920004 -0.047040004 1.008 6.7065037e-39
-0.072000004 -0.047040004 1.008 6.3377268e-39
-0.069940954 -0.046946671 1.006 6.0615155e-39
-0.067821912 -0.046806671 1.003 7.6241651e-39
-0.065911435 -0.046806671 1.003 9.1868076e-39
-0.063809529 -0.046666671 1 9.4630358e-39
-0.061719052 -0.04652667 0.99700004 9.8307477e-39
-0.059820004 -0.04652667 0.99700004 9.8314764e-39
-0.057746671 -0.04638667 0.99400002 9.8303862e-39
-0.055853337 -0.04638667 0.99400002 9.8321644e-39
-0.053960003 -0.04638667 0.99400002 9.7421646e-39
-0.051909529 -0.04624667 0.99100006 1.0293577e-38
-0.050021909 -0.04624667 0.99100006 1.0753794e-38
-0.04813429 -0.04624667 0.99100006 1.0292069e-38
-0.04624667 -0.04624667 0.99100006 9.7399716e-39
-0.044359051 -0.04624667 0.99100006 9.9232755e-39
-0.042471431 -0.04624667 0.99100006 1.0197379e-38
-0.040583812 -0.04624667 0.99100006 1.0108086e-38
-0.038696192 -0.04624667 0.99100006 1.0109493e-38
-0.036808573 -0.04624667 0.99100006 1.0476807e-38
-0.034920953 -0.04624667 0.99100006 1.0843447e-38
-0.033133335 -0.04638667 0.99400002 1.0293884e-38
-0.031145716 -0.04624667 0.99100006 9.8364776e-39
-0.029258097 -0.04624667 0.99100006 9.5573614e-39
-0.027453335 -0.04638667 0.99400002 9.2782648e-39
-0.025560001 -0.04638667 0.99400002 8.8172908e-39
-0.023738097 -0.04652667 0.99700004 8.2655576e-39
-0.021904763 -0.046666671 1 8.0818838e-39
-0.020000001 -0.046666671 1 7.9900581e-39
-0.01809524 -0.046666671 1 8.1766088e-39
-0.016239049 -0.046806671 1.003 8.3656565e-39
-0.01437143 -0.046946671 1.006 7.9990264e-39
-0.012517144 -0.047180004 1.011 7.7242556e-39
-0.010622858 -0.047320005 1.0140001 7.3598017e-39
-0.077605717 -0.045030478 1.006 7.5387699e-39
-0.075689532 -0.045030478 1.006 6.9838039e-39
-0.073773339 -0.045030478 1.006 6.338803e-39
-0.071857147 -0.045030478 1.006 5.5108486e-39
-0.069940954 -0.045030478 1.006 4.685062e-39
-0.067821912 -0.044896193 1.003 7.0738752e-39
-0.065714292 -0.044761907 1 9.4626785e-39
-0.063618101 -0.044627622 0.99700004 9.7392668e-39
-0.061719052 -0.044627622 0.99700004 9.9236762e-39
-0.059640005 -0.044493336 0.99400002 9.9244161e-39
-0.057746671 -0.044493336 0.99400002 9.8321911e-39
-0.055684764 -0.044359051 0.99100006 1.001619e-38
-0.053797148 -0.044359051 0.99100006 1.0109131e-38
-0.051909529 -0.044359051 0.99100006 1.0293908e-38
-0.050021909 -0.044359051 0.99100006 1.0385005e-38
-0.04813429 -0.044359051 0.99100006 1.0200595e-38
-0.04624667 -0.044359051 0.99100006 1.0015842e-38
-0.044359051 -0.044359051 0.99100006 1.0198073e-38
-0.042471431 -0.044359051 0.99100006 1.0291004e-38
-0.040460955 -0.044224765 0.98800004 1.0109507e-38
-0.03857905 -0.044224765 0.98800004 9.9265251e-39
-0.036808573 -0.044359051 0.99100006 1.0570064e-38
-0.034920953 -0.044359051 0.99100006 1.1212585e-38
-0.033033334 -0.044359051 0.99100006 1.0570483e-38
-0.031051431 -0.044224765 0.98800004 9.8336148e-39
-0.029258097 -0.044359051 0.99100006 9.5559237e-39
-0.027370477 -0.044359051 0.99100006 9.2789794e-39
-0.025482859 -0.044359051 0.99100006 8.816572e-39
-0.023666669 -0.044493336 0.99400002 8.2655576e-39
-0.021839049 -0.044627622 0.99700004 8.0818838e-39
-0.019940002 -0.044627622 0.99700004 7.8067416e-39
-0.01809524 -0.044761907 1 7.8081822e-39
-0.016190477 -0.044761907 1 7.8121324e-39
-0.014328572 -0.044896193 1.003 7.7228123e-39
-0.012517144 -0.04525429 1.011 7.6331544e-39
-0.010622858 -0.045388576 1.0140001 7.6364082e-39
-0.008717143 -0.045522861 1.0170001 7.6392556e-39
-0.077605717 -0.04311429 1.006 7.4469302e-39
-0.075689532 -0.04311429 1.006 7.0756394e-39
-0.073773339 -0.04311429 1.006 6.7054276e-39
-0.071857147 -0.04311429 1.006 6.338803e-39
-0.069732383 -0.042985719 1.003 5.9714793e-39
-0.067619056 -0.042857144 1 7.533417e-39
-0.06551715 -0.042728573 0.99700004 9.1868202e-39
-0.063426673 -0.042600002 0.99400002 9.8314666e-39
-0.061533336 -0.042600002 0.99400002 1.0475423e-38
-0.059640005 -0.042600002 0.99400002 1.001592e-38
-0.057572383 -0.042471431 0.99100006 9.5570545e-39
-0.055684764 -0.042471431 0.99100006 9.8321546e-39
-0.05363429 -0.04234286 0.98800004 1.0108038e-38
-0.051752385 -0.04234286 0.98800004 1.0475757e-38
-0.04987048 -0.04234286 0.98800004 1.0751258e-38
-0.04784286 -0.042214289 0.98500007 1.0475746e-38
-0.04596667 -0.042214289 0.98500007 1.0291355e-38
-0.04409048 -0.042214289 0.98500007 1.0474664e-38
-0.042214289 -0.042214289 0.98500007 1.0658702e-38
-0.040338099 -0.042214289 0.98500007 1.0384639e-38
-0.038461909 -0.042214289 0.98500007 1.0110542e-38
-0.036585718 -0.042214289 0.98500007 1.0386381e-38
-0.034815241 -0.04234286 0.98800004 1.0753409e-38
-0.032933336 -0.04234286 0.98800004 1.0292841e-38
-0.030957146 -0.042214289 0.98500007 9.8307519e-39
-0.029080953 -0.042214289 0.98500007 9.4648014e-39
-0.027287621 -0.04234286 0.98800004 9.1896537e-39
-0.025405716 -0.04234286 0.98800004 8.72617e-39
-0.02359524 -0.042471431 0.99100006 8.2655562e-39
-0.02170762 -0.042471431 0.99100006 7.8982128e-39
-0.019880001 -0.042600002 0.99400002 7.5308722e-39
-0.018040953 -0.042728573 0.99700004 7.4404717e-39
-0.016141906 -0.042728573 0.99700004 7.3511613e-39
-0.014328572 -0.042985719 1.003 7.446238e-39
-0.012480001 -0.043200001 1.008 7.5413343e-39
-0.01059143 -0.043328576 1.011 7.6360719e-39
-0.0086914292 -0.043457147 1.0140001 7.638555e-39
-0.077374294 -0.041075241 1.003 7.3543913e-39
-0.075689532 -0.041198097 1.006 7.2585929e-39
-0.073773339 -0.041198097 1.006 7.0749219e-39
-0.071642861 -0.041075241 1.003 7.1671162e-39
-0.069732383 -0.041075241 1.003 7.1664197e-39
-0.067619056 -0.040952384 1 8.0844356e-39
-0.06551715 -0.040829528 0.99700004 8.9123942e-39
-0.063426673 -0.040706668 0.99400002 9.9243811e-39
-0.061533336 -0.040706668 0.99400002 1.093459e-38
-0.059460003 -0.040583812 0.99100006 1.0106296e-38
-0.057398099 -0.040460955 0.98800004 9.2808264e-39
-0.055516195 -0.040460955 0.98800004 9.7396199e-39
-0.053471431 -0.040338099 0.98500007 1.0106979e-38
-0.051595241 -0.040338099 0.98500007 1.0657291e-38
-0.049719051 -0.040338099 0.98500007 1.1117538e-38
-0.047745716 -0.040256195 0.98300004 1.0842743e-38
-0.045873336 -0.040256195 0.98300004 1.0474678e-38
-0.044000953 -0.040256195 0.98300004 1.075018e-38
-0.042128574 -0.040256195 0.98300004 1.1026057e-38
-0.040256195 -0.040256195 0.98300004 1.0659804e-38
-0.038383812 -0.040256195 0.98300004 1.0293155e-38
-0.036511432 -0.040256195 0.98300004 1.0294568e-38
-0.034709524 -0.040338099 0.98500007 1.0201318e-38
-0.032833334 -0.040338099 0.98500007 1.0016235e-38
-0.030894287 -0.040256195 0.98300004 9.741059e-39
-0.029080953 -0.040338099 0.98500007 9.4666007e-39
-0.027204763 -0.040338099 0.98500007 9.0956686e-39
-0.025405716 -0.040460955 0.98800004 8.7247365e-39
-0.023523811 -0.040460955 0.98800004 8.2655576e-39
-0.02170762 -0.040583812 0.99100006 7.8063773e-39
-0.019820001 -0.040583812 0.99100006 7.2557287e-39
-0.017986668 -0.040706668 0.99400002 7.0720619e-39
-0.016093334 -0.040706668 0.99400002 6.8001469e-39
-0.014285715 -0.040952384 1 7.1692882e-39
-0.012480001 -0.041280001 1.008 7.4494778e-39
-0.01059143 -0.041402861 1.011 7.5445629e-39
-0.0086657144 -0.041402861 1.011 7.6378137e-39
-0.077374294 -0.039164763 1.003 6.6172116e-39
-0.075463817 -0.039164763 1.003 6.8923271e-39
-0.073553339 -0.039164763 1.003 7.2600279e-39
-0.071642861 -0.039164763 1.003 6.8916097e-39
-0.069523811 -0.039047621 1 6.523574e-39
-0.067416199 -0.038930479 0.99700004 7.7181754e-39
-0.065320008 -0.038813338 0.99400002 8.9123984e-39
-0.063426673 -0.038813338 0.99400002 9.6492361e-39
-0.061347622 -0.038696192 0.99100006 1.0385002e-38
-0.059280004 -0.03857905 0.98800004 1.0016229e-38
-0.057223812 -0.038461909 0.98500007 9.648883e-39
-0.055235241 -0.038383812 0.98300004 9.9243853e-39
-0.053362861 -0.038383812 0.98300004 1.0198114e-38
-0.051490478 -0.038383812 0.98300004 1.0474353e-38
-0.049618099 -0.038383812 0.98300004 1.084097e-38
-0.047600005 -0.03826667 0.98000002 1.065765e-38
-0.045733336 -0.03826667 0.98000002 1.0472896e-38
-0.043866668 -0.03826667 0.98000002 1.05658e-38
-0.042000003 -0.03826667 0.98000002 1.0750204e-38
-0.040133335 -0.03826667 0.98000002 1.0474713e-38
-0.038149524 -0.038149524 0.97700006 1.0198828e-38
-0.036288574 -0.038149524 0.97700006 1.020096e-38
-0.034533337 -0.03826667 0.98000002 1.0108765e-38
-0.032666668 -0.03826667 0.98000002 9.9254517e-39
-0.030800002 -0.03826667 0.98000002 9.7417681e-39
-0.028933335 -0.03826667 0.98000002 9.3722597e-39
-0.027149526 -0.038383812 0.98300004 9.0931617e-39
-0.025328573 -0.038461909 0.98500007 8.7250966e-39
-0.023452383 -0.038461909 0.98500007 8.3573931e-39
-0.021576192 -0.038461909 0.98500007 7.8982128e-39
-0.019760001 -0.03857905 0.98800004 7.4394039e-39
-0.017932381 -0.038696192 0.99100006 7.1667756e-39
-0.016044764 -0.038696192 0.99100006 6.9856116e-39
-0.014157143 -0.038696192 0.99100006 7.0792365e-39
-0.012418096 -0.039164763 1.003 7.2672221e-39
-0.010539048 -0.039281908 1.006 7.4523364e-39
-0.0086228577 -0.039281908 1.006 7.6374326e-39
-0.0067066671 -0.039281908 1.006 7.9157977e-39
-0.077374294 -0.037254289 1.003 5.7903404e-39
-0.075463817 -0.037254289 1.003 6.6175549e-39
-0.073333338 -0.037142858 1 7.352948e-39
-0.071214288 -0.037031431 0.99700004 6.6157459e-39
-0.069106668 -0.036920004 0.99400002 5.8807242e-39
-0.067010477 -0.036808573 0.99100006 7.3522669e-39
-0.065122865 -0.036808573 0.99100006 8.823074e-39
-0.06304381 -0.036697146 0.98800004 9.3744513e-39
-0.060976196 -0.036585718 0.98500007 9.833626e-39
-0.058980003 -0.036511432 0.98300004 9.9243825e-39
-0.057107624 -0.036511432 0.98300004 9.9258188e-39
-0.055235241 -0.036511432 0.98300004 1.0110209e-38
-0.053200003 -0.036400001 0.98000002 1.0292833e-38
-0.051333338 -0.036400001 0.98000002 1.0384338e-38
-0.04946667 -0.036400001 0.98000002 1.0475798e-38
-0.047600005 -0.036400001 0.98000002 1.0474344e-38
-0.045593336 -0.036288574 0.97700006 1.0382859e-38
-0.043732382 -0.036288574 0.97700006 1.0473969e-38
-0.041742861 -0.036177143 0.97400004 1.0475402e-38
-0.039887622 -0.036177143 0.97400004 1.0289936e-38
-0.038032383 -0.036177143 0.97400004 1.0108052e-38
-0.036177143 -0.036177143 0.97400004 1.0109839e-38
-0.03442762 -0.036288574 0.97700006 1.0019077e-38
-0.032666668 -0.036400001 0.98000002 9.8346854e-39
-0.030705716 -0.036288574 0.97700006 9.6499494e-39
-0.028933335 -0.036400001 0.98000002 9.3715843e-39
-0.027066668 -0.036400001 0.98000002 9.0017073e-39
-0.025277145 -0.036511432 0.98300004 8.7247421e-39
-0.023404764 -0.036511432 0.98300004 8.3573987e-39
-0.021576192 -0.036585718 0.98500007 7.9900553e-39
-0.019700002 -0.036585718 0.98500007 7.5330498e-39
-0.017878097 -0.036697146 0.98800004 7.3533459e-39
-0.015996192 -0.036697146 0.98800004 7.0799708e-39
-0.014114287 -0.036697146 0.98800004 7.0788736e-39
-0.01234381 -0.037031431 0.99700004 6.9902709e-39
-0.01050762 -0.037254289 1.003 7.2675752e-39
-0.008597143 -0.037254289 1.003 7.545946e-39
-0.077142864 -0.035238098 1 6.4303274e-39
-0.075012386 -0.035132382 0.99700004 7.172172e-39
-0.073113337 -0.035132382 0.99700004 7.9086343e-39
-0.071000002 -0.03502667 0.99400002 7.0756408e-39
-0.068898097 -0.034920953 0.99100006 6.2451963e-39
-0.06680762 -0.034815241 0.98800004 7.8121605e-39
-0.064728573 -0.034709524 0.98500007 9.3769582e-39
-0.062852383 -0.034709524 0.98500007 9.6506781e-39
-0.060852386 -0.034639049 0.98300004 1.0017652e-38
-0.058980003 -0.034639049 0.98300004 1.0017283e-38
-0.056933336 -0.034533337 0.98000002 1.0019084e-38
-0.055066671 -0.034533337 0.98000002 1.0110209e-38
-0.053037148 -0.03442762 0.97700006 1.029428e-38
-0.051333338 -0.034533337 0.98000002 1.0293964e-38
-0.04931524 -0.03442762 0.97700006 1.0387208e-38
-0.04745429 -0.03442762 0.97700006 1.0109521e-38
-0.045453336 -0.034321908 0.97400004 9.9258398e-39
-0.043598097 -0.034321908 0.97400004 1.0202053e-38
-0.041742861 -0.034321908 0.97400004 1.0387859e-38
-0.039887622 -0.034321908 0.97400004 1.0293494e-38
-0.038032383 -0.034321908 0.97400004 1.0109111e-38
-0.036177143 -0.034321908 0.97400004 1.0111987e-38
-0.034321908 -0.034321908 0.97400004 1.0205971e-38
-0.03256667 -0.03442762 0.97700006 1.002086e-38
-0.030705716 -0.03442762 0.97700006 9.8357896e-39
-0.028844764 -0.03442762 0.97700006 9.3723424e-39
-0.027066668 -0.034533337 0.98000002 8.908818e-39
-0.025200002 -0.034533337 0.98000002 8.5410739e-39
-0.023404764 -0.034639049 0.98300004 8.2655674e-39
-0.021532383 -0.034639049 0.98300004 7.8071074e-39
-0.019660002 -0.034639049 0.98300004 7.4412326e-39
-0.017823812 -0.034709524 0.98500007 7.1707792e-39
-0.015996192 -0.034815241 0.98800004 6.9938862e-39
-0.014114287 -0.034815241 0.98800004 6.6232778e-39
-0.01234381 -0.035132382 0.99700004 6.2555771e-39
-0.01050762 -0.035343811 1.003 6.8091012e-39
-0.008597143 -0.035343811 1.003 7.3622666e-39
-0.076911435 -0.033233337 0.99700004 6.9849039e-39
-0.075012386 -0.033233337 0.99700004 7.7317792e-39
-0.072893336 -0.033133335 0.99400002 8.3688795e-39
-0.070785716 -0.033033334 0.99100006 7.4411891e-39
-0.068689525 -0.032933336 0.98800004 6.52393e-39
-0.066604763 -0.032833334 0.98500007 8.2734889e-39
-0.064597145 -0.03276667 0.98300004 9.9258272e-39
-0.062533334 -0.032666668 0.98000002 1.0016962e-38
-0.060480956 -0.03256667 0.97700006 1.0108778e-38
-0.058620002 -0.03256667 0.97700006 1.0108401e-38
-0.056759052 -0.03256667 0.97700006 1.0016919e-38
-0.054898098 -0.03256667 0.97700006 1.0109466e-38
-0.052874289 -0.032466669 0.97400004 1.0200974e-38
-0.051176194 -0.03256667 0.97700006 1.0201365e-38
-0.049163811 -0.032466669 0.97400004 1.0201341e-38
-0.047308575 -0.032466669 0.97400004 9.8339735e-39
-0.045453336 -0.032466669 0.97400004 9.466284e-39
-0.043508574 -0.032400001 0.97200006 9.92906e-39
-0.041657146 -0.032400001 0.97200006 1.0298545e-38
-0.039805718 -0.032400001 0.97200006 1.0203112e-38
-0.037954289 -0.032400001 0.97200006 1.0110916e-38
-0.036102861 -0.032400001 0.97200006 1.0205979e-38
-0.034321908 -0.032466669 0.97400004 1.0297453e-38
-0.03256667 -0.03256667 0.97700006 1.0114857e-38
-0.030611431 -0.032466669 0.97400004 9.9272579e-39
-0.028844764 -0.03256667 0.97700006 9.3733933e-39
-0.026983811 -0.03256667 0.97700006 8.8184035e-39
-0.025200002 -0.032666668 0.98000002 8.4492384e-39
-0.023333335 -0.032666668 0.98000002 8.0818936e-39
-0.021466669 -0.032666668 0.98000002 7.7145488e-39
-0.019660002 -0.03276667 0.98300004 7.3493816e-39
-0.01778762 -0.03276667 0.98300004 7.0774849e-39
-0.015947619 -0.032833334 0.98500007 6.8069797e-39
-0.014071429 -0.032833334 0.98500007 6.1651864e-39
-0.012306668 -0.033133335 0.99400002 5.5234127e-39
-0.010476192 -0.033333335 1 6.3510069e-39
-0.0085714292 -0.033333335 1 7.1789599e-39
-0.076680005 -0.031240001 0.99400002 7.2560832e-39
-0.074786671 -0.031240001 0.99400002 7.3601156e-39
-0.072673336 -0.031145716 0.99100006 7.5473739e-39
-0.070785716 -0.031145716 0.99100006 7.2614628e-39
-0.068480954 -0.030957146 0.98500007 7.0742241e-39
-0.066469528 -0.030894287 0.98300004 8.2702575e-39
-0.064400002 -0.030800002 0.98000002 9.4637869e-39
-0.06234191 -0.030705716 0.97700006 9.9240672e-39
-0.060295243 -0.030611431 0.97400004 1.0291381e-38
-0.058440004 -0.030611431 0.97400004 1.0199159e-38
-0.056584764 -0.030611431 0.97400004 1.0014035e-38
-0.054729529 -0.030611431 0.97400004 1.0016169e-38
-0.05276572 -0.030548573 0.97200006 1.0015474e-38
-0.05101905 -0.030611431 0.97400004 1.0292078e-38
-0.049062859 -0.030548573 0.97200006 1.0565769e-38
-0.047211431 -0.030548573 0.97200006 1.0199122e-38
-0.045360003 -0.030548573 0.97200006 9.7371088e-39
-0.043508574 -0.030548573 0.97200006 1.002054e-38
-0.041657146 -0.030548573 0.97200006 1.0306805e-38
-0.039805718 -0.030548573 0.97200006 1.0204564e-38
-0.037954289 -0.030548573 0.97200006 1.0200969e-38
-0.036102861 -0.030548573 0.97200006 1.0294949e-38
-0.034251429 -0.030548573 0.97200006 1.047862e-38
-0.032466669 -0.030611431 0.97400004 1.0203112e-38
-0.030548573 -0.030548573 0.97200006 9.9261719e-39
-0.028756192 -0.030611431 0.97400004 9.4637673e-39
-0.026900955 -0.030611431 0.97400004 9.0006269e-39
-0.025122859 -0.030705716 0.97700006 8.6329094e-39
-0.023261907 -0.030705716 0.97700006 8.1737263e-39
-0.021466669 -0.030800002 0.98000002 7.8982128e-39
-0.019600002 -0.030800002 0.98000002 7.6227203e-39
-0.017733334 -0.030800002 0.98000002 7.3536836e-39
-0.015915239 -0.030894287 0.98300004 7.0824777e-39
-0.014071429 -0.030957146 0.98500007 6.7176427e-39
-0.012269525 -0.031145716 0.99100006 6.4435683e-39
-0.010444762 -0.031334288 0.99700004 6.8105488e-39
-0.0085714292 -0.031428572 1 7.1760957e-39
-0.076448575 -0.029258097 0.99100006 7.5445027e-39
-0.074560955 -0.029258097 0.99100006 7.0885552e-39
-0.072233342 -0.029080953 0.98500007 6.6243582e-39
-0.070357144 -0.029080953 0.98500007 7.1664057e-39
-0.068341911 -0.029021908 0.98300004 7.6259615e-39
-0.066266671 -0.028933335 0.98000002 8.3617427e-39
-0.06420286 -0.028844764 0.97700006 9.0049597e-39
-0.062150482 -0.028756192 0.97400004 9.7407311e-39
-0.060295243 -0.028756192 0.97400004 1.0475753e-38
-0.058440004 -0.028756192 0.97400004 1.0290626e-38
-0.056584764 -0.028756192 0.97400004 1.0016909e-38
-0.054617148 -0.028697144 0.97200006 9.9257866e-39
-0.05276572 -0.028697144 0.97200006 9.7417709e-39
-0.050914288 -0.028697144 0.97200006 1.0385349e-38
-0.049062859 -0.028697144 0.97200006 1.0935995e-38
-0.047211431 -0.028697144 0.97200006 1.0475376e-38
-0.045360003 -0.028697144 0.97200006 1.001658e-38
-0.043374289 -0.028608574 0.96900004 1.0201351e-38
-0.041528575 -0.028608574 0.96900004 1.0296403e-38
-0.039682861 -0.028608574 0.96900004 1.0290652e-38
-0.037837144 -0.028608574 0.96900004 1.0200601e-38
-0.03599143 -0.028608574 0.96900004 1.047825e-38
-0.034145717 -0.028608574 0.96900004 1.0661922e-38
-0.032400001 -0.028697144 0.97200006 1.0293147e-38
-0.030454287 -0.028608574 0.96900004 9.9250873e-39
-0.028697144 -0.028697144 0.97200006 9.5548769e-39
-0.026845716 -0.028697144 0.97200006 9.1850126e-39
-0.025045715 -0.028756192 0.97400004 8.7247477e-39
-0.023261907 -0.028844764 0.97700006 8.2655632e-39
-0.021400955 -0.028844764 0.97700006 8.0818838e-39
-0.019600002 -0.028933335 0.98000002 7.9007323e-39
-0.017679049 -0.028844764 0.97700006 7.63169e-39
-0.015866667 -0.028933335 0.98000002 7.2682941e-39
-0.014042858 -0.029021908 0.98300004 7.3630009e-39
-0.012195239 -0.029080953 0.98500007 7.3633582e-39
-0.010381905 -0.029258097 0.99100006 7.271164e-39
-0.076448575 -0.027370477 0.99100006 8.1963194e-39
-0.07433524 -0.027287621 0.98800004 7.6377731e-39
-0.072233342 -0.027204763 0.98500007 7.082821e-39
-0.070357144 -0.027204763 0.98500007 7.5373406e-39
-0.068341911 -0.027149526 0.98300004 7.9929518e-39
-0.066266671 -0.027066668 0.98000002 8.6368975e-39
-0.06420286 -0.026983811 0.97700006 9.1879049e-39
-0.062150482 -0.026900955 0.97400004 9.7410646e-39
-0.060295243 -0.026900955 0.97400004 1.0293857e-38
-0.058320004 -0.026845716 0.97200006 1.0109455e-38
-0.056468576 -0.026845716 0.97200006 1.0020859e-38
-0.054448575 -0.026762858 0.96900004 1.0019793e-38
-0.052602861 -0.026762858 0.96900004 1.0018005e-38
-0.050757147 -0.026762858 0.96900004 1.0387862e-38
-0.04891143 -0.026762858 0.96900004 1.0664092e-38
-0.047065716 -0.026762858 0.96900004 1.0202767e-38
-0.045220003 -0.026762858 0.96900004 9.7439625e-39
-0.043374289 -0.026762858 0.96900004 1.0019123e-38
-0.041528575 -0.026762858 0.96900004 1.0294968e-38
-0.039682861 -0.026762858 0.96900004 1.0292438e-38
-0.037837144 -0.026762858 0.96900004 1.0199515e-38
-0.03599143 -0.026762858 0.96900004 1.0569357e-38
-0.034145717 -0.026762858 0.96900004 1.0938854e-38
-0.032300003 -0.026762858 0.96900004 1.0385333e-38
-0.030454287 -0.026762858 0.96900004 9.9257964e-39
-0.028608574 -0.026762858 0.96900004 9.4623141e-39
-0.026762858 -0.026762858 0.96900004 9.0920981e-39
-0.024994288 -0.026845716 0.97200006 8.7247505e-39
-0.023190478 -0.026900955 0.97400004 8.3574001e-39
-0.021335239 -0.026900955 0.97400004 8.0822425e-39
-0.019540001 -0.026983811 0.97700006 7.8992918e-39
-0.017679049 -0.026983811 0.97700006 7.7217207e-39
-0.015818097 -0.026983811 0.97700006 7.5463061e-39
-0.014000001 -0.027066668 0.98000002 7.7292639e-39
-0.012170477 -0.027149526 0.98300004 7.9158075e-39
-0.010298096 -0.027149526 0.98300004 7.6388675e-39
-0.0084685721 -0.027287621 0.98800004 7.2718814e-39
-0.078336194 -0.025482859 0.99100006 8.194167e-39
-0.076448575 -0.025482859 0.99100006 8.7415969e-39
-0.07433524 -0.025405716 0.98800004 8.1826974e-39
-0.072233342 -0.025328573 0.98500007 7.5387783e-39
-0.070214294 -0.025277145 0.98300004 7.9990376e-39
-0.068133339 -0.025200002 0.98000002 8.3628035e-39
-0.066063814 -0.025122859 0.97700006 8.9123928e-39
-0.064005718 -0.025045715 0.97400004 9.3722793e-39
-0.062150482 -0.025045715 0.97400004 9.7410464e-39
-0.060171433 -0.024994288 0.97200006 1.0017262e-38
-0.058320004 -0.024994288 0.97200006 1.0016536e-38
-0.056468576 -0.024994288 0.97200006 9.9272271e-39
-0.054448575 -0.024917144 0.96900004 1.0114142e-38
-0.052602861 -0.024917144 0.96900004 1.029746e-38
-0.050600003 -0.024840001 0.96600002 1.0391455e-38
-0.048760004 -0.024840001 0.96600002 1.0388937e-38
-0.046920002 -0.024840001 0.96600002 9.9275999e-39
-0.045080002 -0.024840001 0.96600002 9.4673602e-39
-0.043240003 -0.024840001 0.96600002 9.9272692e-39
-0.041400004 -0.024840001 0.96600002 1.0293155e-38
-0.039560001 -0.024840001 0.96600002 1.0292058e-38
-0.037720002 -0.024840001 0.96600002 1.0199862e-38
-0.035880003 -0.024840001 0.96600002 1.0752669e-38
-0.034040004 -0.024840001 0.96600002 1.1212561e-38
-0.032300003 -0.024917144 0.96900004 1.056684e-38
-0.030360002 -0.024840001 0.96600002 9.8310826e-39
-0.028520001 -0.024840001 0.96600002 9.3686808e-39
-0.026762858 -0.024917144 0.96900004 8.9087816e-39
-0.024917144 -0.024917144 0.96900004 8.6329136e-39
-0.023142859 -0.024994288 0.97200006 8.3573987e-39
-0.021335239 -0.025045715 0.97400004 8.1737193e-39
-0.019480001 -0.025045715 0.97400004 7.8996519e-39
-0.017624764 -0.025045715 0.97400004 7.8096143e-39
-0.015769524 -0.025045715 0.97400004 7.7224409e-39
-0.013957144 -0.025122859 0.97700006 8.092294e-39
-0.012133334 -0.025200002 0.98000002 8.4635891e-39
-0.010266667 -0.025200002 0.98000002 7.9122244e-39
-0.078336194 -0.02359524 0.99100006 7.7281736e-39
-0.076217145 -0.023523811 0.98800004 8.0054836e-39
-0.074109532 -0.023452383 0.98500007 7.7217347e-39
-0.07208667 -0.023404764 0.98300004 7.349376e-39
-0.070214294 -0.023404764 0.98300004 7.9029058e-39
-0.067924768 -0.023261907 0.97700006 8.4546376e-39
-0.065860957 -0.023190478 0.97400004 8.9134577e-39
-0.064005718 -0.023190478 0.97400004 9.4633819e-39
-0.062022861 -0.023142859 0.97200006 9.6499102e-39
-0.060171433 -0.023142859 0.97200006 9.8332196e-39
-0.058140002 -0.023071431 0.96900004 9.8324979e-39
-0.056294288 -0.023071431 0.96900004 9.8328777e-39
-0.054280005 -0.023000002 0.96600002 1.0020516e-38
-0.052440003 -0.023000002 0.96600002 1.0206705e-38
-0.05044286 -0.022928573 0.96300006 1.0389307e-38
-0.048608575 -0.022928573 0.96300006 1.0571882e-38
-0.046774291 -0.022928573 0.96300006 1.0202009e-38
-0.044940002 -0.022928573 0.96300006 9.9232895e-39
-0.043105718 -0.022928573 0.96300006 1.0109127e-38
-0.04127143 -0.022928573 0.96300006 1.0382459e-38
-0.039437145 -0.022928573 0.96300006 1.0199124e-38
-0.03760286 -0.022928573 0.96300006 9.9218349e-39
-0.035768572 -0.022928573 0.96300006 1.0384968e-38
-0.033934288 -0.022928573 0.96300006 1.0846648e-38
-0.032200001 -0.023000002 0.96600002 1.0384591e-38
-0.030265717 -0.022928573 0.96300006 9.9214748e-39
-0.028520001 -0.023000002 0.96600002 9.3693926e-39
-0.026680002 -0.023000002 0.96600002 8.8169433e-39
-0.024917144 -0.023071431 0.96900004 8.5410767e-39
-0.023071431 -0.023071431 0.96900004 8.3573987e-39
-0.021291429 -0.023142859 0.97200006 8.174078e-39
-0.019440001 -0.023142859 0.97200006 7.9907714e-39
-0.017588573 -0.023142859 0.97200006 7.9003764e-39
-0.015769524 -0.023190478 0.97400004 7.8092528e-39
-0.013957144 -0.023261907 0.97700006 7.9071811e-39
-0.012133334 -0.023333335 0.98000002 8.0047675e-39
-0.010266667 -0.023333335 0.98000002 7.7303485e-39
-0.07809905 -0.021641906 0.98800004 7.2575265e-39
-0.075831436 -0.021532383 0.98300004 7.2607551e-39
-0.073959053 -0.021532383 0.98300004 7.2571692e-39
-0.071866669 -0.021466669 0.98000002 7.1657008e-39
-0.070000008 -0.021466669 0.98000002 7.8089179e-39
-0.067716196 -0.021335239 0.97400004 8.4546376e-39
-0.065860957 -0.021335239 0.97400004 9.0070869e-39
-0.063874289 -0.021291429 0.97200006 9.559539e-39
-0.062022861 -0.021291429 0.97200006 9.6535311e-39
-0.060171433 -0.021291429 0.97200006 9.650657e-39
-0.058140002 -0.021225715 0.96900004 9.6477844e-39
-0.056294288 -0.021225715 0.96900004 9.6506725e-39
-0.054280005 -0.021160001 0.96600002 9.835798e-39
-0.052277148 -0.021094287 0.96300006 1.0020181e-38
-0.05044286 -0.021094287 0.96300006 1.0387158e-38
-0.048608575 -0.021094287 0.96300006 1.0753417e-38
-0.046677146 -0.021050477 0.96100003 1.0568663e-38
-0.044846669 -0.021050477 0.96100003 1.0293154e-38
-0.043016192 -0.021050477 0.96100003 1.038642e-38
-0.041185718 -0.021050477 0.96100003 1.0476095e-38
-0.039355241 -0.021050477 0.96100003 1.0107668e-38
-0.037524763 -0.021050477 0.96100003 9.6499368e-39
-0.035694286 -0.021050477 0.96100003 1.0018725e-38
-0.033934288 -0.021094287 0.96300006 1.0386768e-38
-0.032100003 -0.021094287 0.96300006 1.020308e-38
-0.03020286 -0.021050477 0.96100003 1.0015824e-38
-0.02843143 -0.021094287 0.96300006 9.3701087e-39
-0.026597144 -0.021094287 0.96300006 8.7258211e-39
-0.024840001 -0.021160001 0.96600002 8.5410697e-39
-0.023000002 -0.021160001 0.96600002 8.265559e-39
-0.021225715 -0.021225715 0.96900004 8.174078e-39
-0.019380001 -0.021225715 0.96900004 8.0826041e-39
-0.017588573 -0.021291429 0.97200006 7.9911301e-39
-0.015737144 -0.021291429 0.97200006 7.8096087e-39
-0.013914287 -0.021335239 0.97400004 7.6305984e-39
-0.012133334 -0.021466669 0.98000002 7.4508903e-39
-0.010266667 -0.021466669 0.98000002 7.5466901e-39
-0.077703811 -0.019660002 0.98300004 7.2611237e-39
-0.075368576 -0.019540001 0.97700006 7.3497222e-39
-0.073507622 -0.019540001 0.97700006 7.0734898e-39
-0.071646668 -0.019540001 0.97700006 6.8901902e-39
-0.069571435 -0.019480001 0.97400004 7.6263217e-39
-0.067368574 -0.019380001 0.96900004 8.4553537e-39
-0.065522864 -0.019380001 0.96900004 9.0088792e-39
-0.063677147 -0.019380001 0.96900004 9.4709475e-39
-0.061640006 -0.019320002 0.96600002 9.5613691e-39
-0.059800003 -0.019320002 0.96600002 9.6517669e-39
-0.057780005 -0.01926 0.96300006 9.5592097e-39
-0.055945717 -0.01926 0.96300006 9.4695434e-39
-0.054111432 -0.01926 0.96300006 9.7436318e-39
-0.052168574 -0.019220002 0.96100003 1.0109522e-38
-0.050338097 -0.019220002 0.96100003 1.0293175e-38
-0.048507623 -0.019220002 0.96100003 1.0567611e-38
-0.046677146 -0.019220002 0.96100003 1.0384304e-38
-0.044846669 -0.019220002 0.96100003 1.0294241e-38
-0.043016192 -0.019220002 0.96100003 1.0385696e-38
-0.041057147 -0.019160001 0.95800006 1.0476819e-38
-0.039232384 -0.019160001 0.95800006 1.0476823e-38
-0.037524763 -0.019220002 0.96100003 1.0479347e-38
-0.035694286 -0.019220002 0.96100003 1.0478642e-38
-0.033863813 -0.019220002 0.96100003 1.0478618e-38
-0.032033335 -0.019220002 0.96100003 1.057007e-38
-0.030108573 -0.019160001 0.95800006 1.066011e-38
-0.028372383 -0.019220002 0.96100003 9.7381667e-39
-0.026541907 -0.019220002 0.96100003 8.9091291e-39
-0.02476286 -0.01926 0.96300006 8.5414214e-39
-0.022928573 -0.01926 0.96300006 8.1737207e-39
-0.021160001 -0.019320002 0.96600002 8.0822425e-39
-0.019380001 -0.019380001 0.96900004 7.9907658e-39
-0.017534288 -0.019380001 0.96900004 7.899289e-39
-0.015737144 -0.019440001 0.97200006 7.8074535e-39
-0.013914287 -0.019480001 0.97400004 7.5358931e-39
-0.012133334 -0.019600002 0.98000002 7.263639e-39
-0.010266667 -0.019600002 0.98000002 7.3605192e-39
-0.079576194 -0.01778762 0.98300004 7.2654158e-39
-0.077703811 -0.01778762 0.98300004 7.3518746e-39
-0.075368576 -0.017679049 0.97700006 7.3497166e-39
-0.073507622 -0.017679049 0.97700006 6.980218e-39
-0.071426675 -0.017624764 0.97400004 6.5221251e-39
-0.069428578 -0.017588573 0.97200006 7.5337589e-39
-0.067368574 -0.017534288 0.96900004 8.4553551e-39
-0.065522864 -0.017534288 0.96900004 8.9181325e-39
-0.063480005 -0.017480001 0.96600002 9.3769778e-39
-0.061640006 -0.017480001 0.96600002 9.4691987e-39
-0.05961429 -0.017425716 0.96300006 9.5595839e-39
-0.057660002 -0.017389525 0.96100003 9.3755401e-39
-0.055829529 -0.017389525 0.96100003 9.1911573e-39
-0.053830478 -0.01733524 0.95800006 9.6517767e-39
-0.052005719 -0.01733524 0.95800006 1.0108069e-38
-0.050180957 -0.01733524 0.95800006 1.019989e-38
-0.048356194 -0.01733524 0.95800006 1.0290648e-38
-0.046385717 -0.017280953 0.95500004 1.0289929e-38
-0.044566669 -0.017280953 0.95500004 1.0199164e-38
-0.04274762 -0.017280953 0.95500004 1.0292789e-38
-0.040928572 -0.017280953 0.95500004 1.0383554e-38
-0.039109528 -0.017280953 0.95500004 1.0842739e-38
-0.03729048 -0.017280953 0.95500004 1.1211167e-38
-0.035471432 -0.017280953 0.95500004 1.0845987e-38
-0.033758096 -0.01733524 0.95800006 1.0478261e-38
-0.031933334 -0.01733524 0.95800006 1.0845938e-38
-0.030014288 -0.017280953 0.95500004 1.1210403e-38
-0.02819524 -0.017280953 0.95500004 1.0105502e-38
-0.026459049 -0.01733524 0.95800006 9.0013192e-39
-0.024634287 -0.01733524 0.95800006 8.5410627e-39
-0.022880955 -0.017389525 0.96100003 8.0818838e-39
-0.021050477 -0.017389525 0.96100003 7.9900483e-39
-0.01926 -0.017425716 0.96300006 7.8989303e-39
-0.017480001 -0.017480001 0.96600002 7.8074535e-39
-0.015688572 -0.017534288 0.96900004 7.7163411e-39
-0.013885715 -0.017588573 0.97200006 7.4415591e-39
-0.012034287 -0.017588573 0.97200006 7.0792561e-39
-0.010235239 -0.017679049 0.97700006 7.2661725e-39
-0.0084000006 -0.017733334 0.98000002 7.361601e-39
-0.0065333336 -0.017733334 0.98000002 7.8254476e-39
-0.079333335 -0.015866667 0.98000002 7.5391231e-39
-0.077466674 -0.015866667 0.98000002 8.091571e-39
-0.075137146 -0.015769524 0.97400004 8.6350506e-39
-0.073281907 -0.015769524 0.97400004 7.1678336e-39
-0.071280003 -0.015737144 0.97200006 5.6941651e-39
-0.069214292 -0.015688572 0.96900004 6.9823774e-39
-0.067160003 -0.015640002 0.96600002 8.3624448e-39
-0.065320008 -0.015640002 0.96600002 8.8227223e-39
-0.063282862 -0.01559143 0.96300006 9.2815732e-39
-0.061448574 -0.01559143 0.96300006 9.373441e-39
-0.05949048 -0.015559048 0.96100003 9.5574441e-39
-0.057660002 -0.015559048 0.96100003 9.4634296e-39
-0.055655241 -0.015510477 0.95800006 9.3690787e-39
-0.053830478 -0.015510477 0.95800006 9.6460159e-39
-0.051842861 -0.015461906 0.95500004 9.9197176e-39
-0.050023813 -0.015461906 0.95500004 9.7374689e-39
-0.048204765 -0.015461906 0.95500004 9.5541496e-39
-0.046288576 -0.015429525 0.95300007 9.8285715e-39
-0.044566669 -0.015461906 0.95500004 1.0102654e-38
-0.042658098 -0.015429525 0.95300007 1.0104818e-38
-0.040842861 -0.015429525 0.95300007 1.0197379e-38
-0.03902762 -0.015429525 0.95300007 1.0105193e-38
-0.03729048 -0.015461906 0.95500004 1.0104483e-38
-0.035397146 -0.015429525 0.95300007 1.0016601e-38
-0.033652384 -0.015461906 0.95500004 9.925816e-39
-0.031933334 -0.015510477 0.95800006 1.0292415e-38
-0.030014288 -0.015461906 0.95500004 1.0657952e-38
-0.02819524 -0.015461906 0.95500004 9.8289106e-39
-0.026376192 -0.015461906 0.95500004 9.0002388e-39
-0.024634287 -0.015510477 0.95800006 8.5410613e-39
-0.022809526 -0.015510477 0.95800006 8.1737193e-39
-0.020984763 -0.015510477 0.95800006 7.9900483e-39
-0.019220002 -0.015559048 0.96100003 7.8985715e-39
-0.017425716 -0.01559143 0.96300006 7.8074535e-39
-0.015640002 -0.015640002 0.96600002 7.6248713e-39
-0.013842858 -0.015688572 0.96900004 6.8919922e-39
-0.012059049 -0.015769524 0.97400004 6.2534598e-39
-0.010235239 -0.015818097 0.97700006 6.8062776e-39
-0.0084000006 -0.015866667 0.98000002 7.4484128e-39
-0.079333335 -0.014000001 0.98000002 7.7317988e-39
-0.077466674 -0.014000001 0.98000002 8.8406771e-39
-0.075137146 -0.013914287 0.97400004 9.8454487e-39
-0.073281907 -0.013914287 0.97400004 7.3619079e-39
-0.071280003 -0.013885715 0.97200006 4.8719518e-39
-0.069214292 -0.013842858 0.96900004 6.522844e-39
-0.067160003 -0.013800001 0.96600002 8.1766228e-39
-0.065117151 -0.013757144 0.96300006 8.6365401e-39
-0.063282862 -0.013757144 0.96300006 9.0953799e-39
-0.061320957 -0.013728572 0.96100003 9.3691152e-39
-0.05949048 -0.013728572 0.96100003 9.5531281e-39
-0.057480004 -0.013685715 0.95800006 9.551319e-39
-0.055655241 -0.013685715 0.95800006 9.4598226e-39
-0.053661909 -0.013642858 0.95500004 9.6431167e-39
-0.051842861 -0.013642858 0.95500004 9.7353053e-39
-0.050023813 -0.013642858 0.95500004 9.2757635e-39
-0.048103813 -0.013614287 0.95300007 8.7254637e-39
-0.046288576 -0.013614287 0.95300007 9.3675906e-39
-0.044473335 -0.013614287 0.95300007 9.9189749e-39
-0.042658098 -0.013614287 0.95300007 1.0010464e-38
-0.040842861 -0.013614287 0.95300007 1.0013352e-38
-0.038904764 -0.013571429 0.95000005 9.4598464e-39
-0.037212383 -0.013614287 0.95300007 8.9142201e-39
-0.035397146 -0.013614287 0.95300007 9.1897321e-39
-0.033652384 -0.013642858 0.95500004 9.378396e-39
-0.031833336 -0.013642858 0.95500004 9.7396101e-39
-0.029951431 -0.013614287 0.95300007 1.0015467e-38
-0.02819524 -0.013642858 0.95500004 9.4601407e-39
-0.026376192 -0.013642858 0.95500004 8.908769e-39
-0.024557145 -0.013642858 0.95500004 8.5410697e-39
-0.022809526 -0.013685715 0.95800006 8.1737235e-39
-0.020984763 -0.013685715 0.95800006 8.0818838e-39
-0.019220002 -0.013728572 0.96100003 7.8982128e-39
-0.017389525 -0.013728572 0.96100003 7.7145418e-39
-0.01559143 -0.013757144 0.96300006 7.5323226e-39
-0.013800001 -0.013800001 0.96600002 6.4321071e-39
-0.012034287 -0.013885715 0.97200006 5.335109e-39
-0.01020381 -0.013914287 0.97400004 6.4403691e-39
-0.0084257144 -0.014042858 0.98300004 7.4541441e-39
-0.07722953 -0.012096191 0.97700006 8.2908118e-39
-0.075137146 -0.012059049 0.97400004 9.0336737e-39
-0.073131435 -0.012034287 0.97200006 7.5452201e-39
-0.071060002 -0.011997144 0.96900004 6.1540628e-39
-0.069000006 -0.011960001 0.96600002 7.2564531e-39
-0.066951431 -0.011922858 0.96300006 8.266666e-39
-0.065117151 -0.011922858 0.96300006 8.6343878e-39
-0.063151434 -0.011898096 0.96100003 8.9099055e-39
-0.061320957 -0.011898096 0.96100003 9.2765398e-39
-0.059304766 -0.011860953 0.95800006 9.6431587e-39
-0.057480004 -0.011860953 0.95800006 9.9226056e-39
-0.055480957 -0.011823811 0.95500004 1.0194134e-38
-0.053549528 -0.011799049 0.95300007 1.0381359e-38
-0.051734287 -0.011799049 0.95300007 1.0561442e-38
-0.04991905 -0.011799049 0.95300007 1.0568617e-38
-0.048103813 -0.011799049 0.95300007 1.0561442e-38
-0.046142861 -0.011761906 0.95000005 1.0660452e-38
-0.044333335 -0.011761906 0.95000005 1.0837321e-38
-0.042523813 -0.011761906 0.95000005 1.084738e-38
-0.04071429 -0.011761906 0.95000005 1.0936374e-38
-0.038904764 -0.011761906 0.95000005 1.075847e-38
-0.037095241 -0.011761906 0.95000005 1.0576239e-38
-0.035285715 -0.011761906 0.95000005 1.0764936e-38
-0.033476193 -0.011761906 0.95000005 1.0862836e-38
-0.031766668 -0.011799049 0.95300007 1.0763074e-38
-0.029951431 -0.011799049 0.95300007 1.0663699e-38
-0.028136192 -0.011799049 0.95300007 1.0111246e-38
-0.026376192 -0.011823811 0.95500004 9.6431026e-39
-0.024557145 -0.011823811 0.95500004 9.1867964e-39
-0.022738097 -0.011823811 0.95500004 8.8165762e-39
-0.020919049 -0.011823811 0.95500004 8.4492258e-39
-0.019160001 -0.011860953 0.95800006 8.1737193e-39
-0.017389525 -0.011898096 0.96100003 7.9900483e-39
-0.015559048 -0.011898096 0.96100003 7.8067585e-39
-0.013757144 -0.011922858 0.96300006 7.4473296e-39
-0.011997144 -0.011997144 0.96900004 7.1736168e-39
-0.010182858 -0.012034287 0.97200006 7.3626674e-39
-0.0084000006 -0.012133334 0.98000002 7.6421129e-39
-0.07722953 -0.010235239 0.97700006 7.8294104e-39
-0.074982859 -0.010182858 0.97200006 8.1016631e-39
-0.073131435 -0.010182858 0.97200006 7.8142932e-39
-0.071060002 -0.010151429 0.96900004 7.4412031e-39
-0.069000006 -0.010120001 0.96600002 7.8982198e-39
-0.066951431 -0.010088572 0.96300006 8.3577855e-39
-0.064981908 -0.010067619 0.96100003 8.5411271e-39
-0.062954292 -0.010036191 0.95800006 8.7255268e-39
-0.061129529 -0.010036191 0.95800006 9.2758335e-39
-0.059119053 -0.010004763 0.95500004 9.7435996e-39
-0.057180002 -0.0099838106 0.95300007 1.0393242e-38
-0.055364765 -0.0099838106 0.95300007 1.0941735e-38
-0.053380955 -0.0099523813 0.95000005 1.1126834e-38
-0.051571433 -0.0099523813 0.95000005 1.131554e-38
-0.049761906 -0.0099523813 0.95000005 1.1875892e-38
-0.047952384 -0.0099523813 0.95000005 1.2328964e-38
-0.046142861 -0.0099523813 0.95000005 1.2058832e-38
-0.044333335 -0.0099523813 0.95000005 1.1687549e-38
-0.04243429 -0.0099314293 0.94800007 1.178836e-38
-0.040628575 -0.0099314293 0.94800007 1.1780837e-38
-0.03882286 -0.0099314293 0.94800007 1.2060659e-38
-0.037017144 -0.0099314293 0.94800007 1.2242178e-38
-0.035211433 -0.0099314293 0.94800007 1.2339037e-38
-0.033476193 -0.0099523813 0.95000005 1.2337243e-38
-0.03166667 -0.0099523813 0.95000005 1.1785514e-38
-0.029857146 -0.0099523813 0.95000005 1.1228392e-38
-0.028136192 -0.0099838106 0.95300007 1.0769203e-38
-0.026320955 -0.0099838106 0.95300007 1.0302111e-38
-0.024505716 -0.0099838106 0.95300007 9.83753e-39
-0.022738097 -0.010004763 0.95500004 9.3747596e-39
-0.020919049 -0.010004763 0.95500004 8.9084033e-39
-0.019160001 -0.010036191 0.95800006 8.4495887e-39
-0.01733524 -0.010036191 0.95800006 8.2655632e-39
-0.015510477 -0.010036191 0.95800006 7.9950986e-39
-0.013728572 -0.010067619 0.96100003 8.4682848e-39
-0.011960001 -0.010120001 0.96600002 8.9263763e-39
-0.010151429 -0.010151429 0.96900004 8.3778647e-39
-0.0084000006 -0.010266667 0.98000002 7.8272118e-39
-0.076992385 -0.0083485721 0.97400004 6.8152025e-39
-0.074982859 -0.0083314292 0.97200006 7.4534098e-39
-0.072905719 -0.0083057145 0.96900004 7.7206879e-39
-0.070840001 -0.0082800006 0.96600002 7.9900721e-39
-0.06878572 -0.0082542859 0.96300006 8.5457248e-39
-0.066812389 -0.008237143 0.96100003 9.1839476e-39
-0.064779051 -0.0082114292 0.95800006 9.6524885e-39
-0.062757149 -0.0081857145 0.95500004 1.001231e-38
-0.060938098 -0.0081857145 0.95500004 1.0573021e-38
-0.058995243 -0.0081685716 0.95300007 1.113153e-38
-0.057000004 -0.0081428578 0.95000005 1.131875e-38
-0.055190481 -0.0081428578 0.95000005 1.150172e-38
-0.053268574 -0.008125715 0.94800007 1.1598954e-38
-0.051462859 -0.008125715 0.94800007 1.1789826e-38
-0.049657147 -0.008125715 0.94800007 1.2063205e-38
-0.047851432 -0.008125715 0.94800007 1.2431251e-38
-0.046045717 -0.008125715 0.94800007 1.2246488e-38
-0.044240002 -0.008125715 0.94800007 1.2064968e-38
-0.04243429 -0.008125715 0.94800007 1.2248638e-38
-0.040628575 -0.008125715 0.94800007 1.2429073e-38
-0.038700003 -0.0081000002 0.94500005 1.2430501e-38
-0.037017144 -0.008125715 0.94800007 1.2340099e-38
-0.035211433 -0.008125715 0.94800007 1.2340455e-38
-0.033405717 -0.008125715 0.94800007 1.234049e-38
-0.031600002 -0.008125715 0.94800007 1.1971748e-38
-0.029794287 -0.008125715 0.94800007 1.1602597e-38
-0.028047621 -0.0081428578 0.95000005 1.1233086e-38
-0.026238097 -0.0081428578 0.95000005 1.0958967e-38
-0.024428573 -0.0081428578 0.95000005 1.049185e-38
-0.02261905 -0.0081428578 0.95000005 1.0119485e-38
-0.02087524 -0.0081685716 0.95300007 9.4701782e-39
-0.019100001 -0.0081857145 0.95500004 8.8172936e-39
-0.017280953 -0.0081857145 0.95500004 8.2659303e-39
-0.015461906 -0.0081857145 0.95500004 7.8071284e-39
-0.013685715 -0.0082114292 0.95800006 7.9115349e-39
-0.011922858 -0.0082542859 0.96300006 8.1045134e-39
-0.010088572 -0.0082542859 0.96300006 7.6424464e-39
-0.0083742859 -0.0083742859 0.97700006 7.2758345e-39
-0.0065333336 -0.0084000006 0.98000002 7.7361008e-39
-0.076834291 -0.0064800004 0.97200006 5.8950524e-39
-0.074751437 -0.0064600003 0.96900004 6.7165721e-39
-0.072680004 -0.0064400006 0.96600002 7.6241875e-39
-0.070840001 -0.0064400006 0.96600002 8.4596739e-39
-0.068642862 -0.0064066672 0.96100003 9.2937253e-39
-0.066603817 -0.006386667 0.95800006 1.003056e-38
-0.064576194 -0.0063666669 0.95500004 1.0688474e-38
-0.062625721 -0.0063533336 0.95300007 1.1319489e-38
-0.060619052 -0.0063333339 0.95000005 1.1963419e-38
-0.058809526 -0.0063333339 0.95000005 1.2518718e-38
-0.056880005 -0.0063200006 0.94800007 1.2340769e-38
-0.055074289 -0.0063200006 0.94800007 1.2063836e-38
-0.053100005 -0.0063000005 0.94500005 1.2160702e-38
-0.051300004 -0.0063000005 0.94500005 1.2157846e-38
-0.049500003 -0.0063000005 0.94500005 1.2339739e-38
-0.047700003 -0.0063000005 0.94500005 1.2431569e-38
-0.045900002 -0.0063000005 0.94500005 1.2430487e-38
-0.044100001 -0.0063000005 0.94500005 1.2341517e-38
-0.042300005 -0.0063000005 0.94500005 1.2712084e-38
-0.040500004 -0.0063000005 0.94500005 1.3076197e-38
-0.038700003 -0.0063000005 0.94500005 1.2800333e-38
-0.036900003 -0.0063000005 0.94500005 1.2433343e-38
-0.035100002 -0.0063000005 0.94500005 1.2341502e-38
-0.033300001 -0.0063000005 0.94500005 1.224969e-38
-0.031500001 -0.0063000005 0.94500005 1.2066043e-38
-0.029700002 -0.0063000005 0.94500005 1.1879501e-38
-0.027988574 -0.0063200006 0.94800007 1.1693676e-38
-0.026182858 -0.0063200006 0.94800007 1.1510352e-38
-0.024377145 -0.0063200006 0.94800007 1.1142642e-38
-0.02257143 -0.0063200006 0.94800007 1.0770995e-38
-0.020809526 -0.0063333339 0.95000005 1.0035952e-38
-0.019060001 -0.0063533336 0.95300007 9.1975724e-39
-0.017244764 -0.0063533336 0.95300007 8.3577574e-39
-0.015461906 -0.0063666669 0.95500004 7.5351994e-39
-0.013642858 -0.0063666669 0.95500004 7.3572836e-39
-0.011898096 -0.0064066672 0.96100003 7.179697e-39
-0.010067619 -0.0064066672 0.96100003 6.9038192e-39
-0.0082542859 -0.0064200005 0.96300006 6.631198e-39
-0.0065333336 -0.0065333336 0.98000002 7.3673337e-39
-0.078685716 -0.0046285717 0.97200006 6.3535181e-39
-0.076834291 -0.0046285717 0.97200006 7.08963e-39
-0.074751437 -0.0046142861 0.96900004 7.822184e-39
-0.072680004 -0.0046000001 0.96600002 8.4657709e-39
-0.070620008 -0.0045857145 0.96300006 9.2058569e-39
-0.068428576 -0.0045619053 0.95800006 9.8508788e-39
-0.066395245 -0.0045476193 0.95500004 1.0497275e-38
-0.064440958 -0.0045380956 0.95300007 1.0960358e-38
-0.062428575 -0.00452381 0.95000005 1.1511011e-38
-0.060491432 -0.0045142858 0.94800007 1.1969827e-38
-0.05868572 -0.0045142858 0.94800007 1.2434746e-38
-0.056700002 -0.0045000003 0.94500005 1.2250357e-38
-0.054900005 -0.0045000003 0.94500005 1.2159598e-38
-0.052931432 -0.0044857147 0.94200003 1.2250716e-38
-0.051137146 -0.0044857147 0.94200003 1.2340762e-38
-0.049238097 -0.0044761905 0.94000006 1.2432243e-38
-0.047447622 -0.0044761905 0.94000006 1.252444e-38
-0.045754287 -0.0044857147 0.94200003 1.2432249e-38
-0.043960001 -0.0044857147 0.94200003 1.2433318e-38
-0.042165715 -0.0044857147 0.94200003 1.2618417e-38
-0.040371433 -0.0044857147 0.94200003 1.2802096e-38
-0.038577147 -0.0044857147 0.94200003 1.2617716e-38
-0.036782861 -0.0044857147 0.94200003 1.2342917e-38
-0.034988575 -0.0044857147 0.94200003 1.2250713e-38
-0.033194289 -0.0044857147 0.94200003 1.2250008e-38
-0.031400003 -0.0044857147 0.94200003 1.2157108e-38
-0.029605716 -0.0044857147 0.94200003 1.2155328e-38
-0.027900001 -0.0045000003 0.94500005 1.1878758e-38
-0.026100002 -0.0045000003 0.94500005 1.1602562e-38
-0.024377145 -0.0045142858 0.94800007 1.1326724e-38
-0.02257143 -0.0045142858 0.94800007 1.10505e-38
-0.020765716 -0.0045142858 0.94800007 1.0405857e-38
-0.019000001 -0.00452381 0.95000005 9.8547926e-39
-0.017244764 -0.0045380956 0.95300007 9.1993352e-39
-0.015429525 -0.0045380956 0.95300007 8.6382918e-39
-0.013642858 -0.0045476193 0.95500004 7.9090028e-39
-0.011898096 -0.0045761908 0.96100003 7.1789753e-39
-0.010067619 -0.0045761908 0.96100003 7.0874916e-39
-0.008237143 -0.0045761908 0.96100003 6.9067101e-39
-0.078685716 -0.0027771431 0.97200006 7.6428388e-39
-0.076597147 -0.0027685717 0.96900004 8.2882124e-39
-0.074288577 -0.0027514289 0.96300006 8.9310426e-39
-0.072303817 -0.0027457145 0.96100003 9.3948668e-39
-0.070253335 -0.0027371431 0.95800006 9.8529863e-39
-0.06821429 -0.0027285716 0.95500004 1.040617e-38
-0.066256195 -0.0027228573 0.95300007 1.0867119e-38
-0.064238101 -0.0027142859 0.95000005 1.1236592e-38
-0.062428575 -0.0027142859 0.95000005 1.1602866e-38
-0.060491432 -0.0027085715 0.94800007 1.1969858e-38
-0.058500003 -0.0027000001 0.94500005 1.2248936e-38
-0.056520004 -0.0026914286 0.94200003 1.2250356e-38
-0.054725718 -0.0026914286 0.94200003 1.2249997e-38
-0.052819051 -0.0026857145 0.94000006 1.2341115e-38
-0.051028576 -0.0026857145 0.94000006 1.2432953e-38
-0.049238097 -0.0026857145 0.94000006 1.2524073e-38
-0.047447622 -0.0026857145 0.94000006 1.2524436e-38
-0.045657147 -0.0026857145 0.94000006 1.2523722e-38
-0.043866668 -0.0026857145 0.94000006 1.2524793e-38
-0.042076193 -0.0026857145 0.94000006 1.2525504e-38
-0.040285718 -0.0026857145 0.94000006 1.2526225e-38
-0.038495239 -0.0026857145 0.94000006 1.2434035e-38
-0.036704764 -0.0026857145 0.94000006 1.2251436e-38
-0.034914289 -0.0026857145 0.94000006 1.2251431e-38
-0.03312381 -0.0026857145 0.94000006 1.2158183e-38
-0.031333335 -0.0026857145 0.94000006 1.2248607e-38
-0.02954286 -0.0026857145 0.94000006 1.2339356e-38
-0.027752383 -0.0026857145 0.94000006 1.206384e-38
-0.026017144 -0.0026914286 0.94200003 1.1695793e-38
-0.024300002 -0.0027000001 0.94500005 1.1511419e-38
-0.022500001 -0.0027000001 0.94500005 1.123449e-38
